ply
format ascii 1.0
comment Created by Open3D
element vertex 1659
property double x
property double y
property double z
end_header
-0.241715 -0.634913 0.354385
-0.541709 -0.0379069 -0.118351
-0.0469696 -0.661079 -0.130413
-0.383538 -0.557218 0.155906
0.512412 0.716362 0.0725239
-0.507576 -0.398342 -0.406502
0.0142338 0.954808 0.0380284
0.37141 -0.390375 0.235863
-0.500404 -0.268901 0.236906
0.0668029 -0.61127 0.505352
0.295194 -0.474005 -0.153409
0.453697 -0.0385225 -0.0463906
-0.656992 -0.306918 0.083521
0.294957 -0.634227 0.062759
-0.648411 0.434698 -0.0789905
-0.530036 0.756841 -0.117939
0.150233 -0.5796 -0.219361
0.0386785 -0.597992 0.156183
-0.778805 0.403596 0.0905955
0.471955 -0.389781 -0.151646
-0.529661 -0.0710089 0.0648956
-0.467972 -0.194949 -0.205956
-0.720017 -0.176965 -0.260334
-0.499877 0.56961 -0.0473339
0.661456 0.578228 0.101105
-0.418731 -0.375788 0.101017
0.579216 0.0778389 -0.125363
0.578859 0.617375 -0.112821
-0.317926 -0.632439 -0.141923
0.269525 -0.0559207 -0.240768
0.279453 -0.263303 -0.24779
0.370583 -0.266877 0.106747
-0.250568 -0.402497 -0.357129
-0.0553719 -0.597992 0.376373
-0.768968 0.204095 0.106306
-0.710089 0.49982 0.266774
-0.226332 -0.485263 0.159822
-0.165982 0.699713 0.0512966
-0.654746 0.646868 0.0739494
0.423419 -0.12171 -0.198848
0.126121 -0.44877 0.149058
-0.514034 0.794771 0.249266
-0.564466 -0.0302209 -0.295341
-0.768866 -0.0244752 -0.0718693
0.482748 -0.481921 0.147914
-0.0516733 -0.665499 0.036316
0.268808 -0.500951 -0.316509
0.338309 -0.09431 0.0562563
-0.548292 -0.531052 -0.180885
-0.353104 -0.207191 0.0966937
0.669327 0.488242 -0.0341194
0.372714 0.599737 -0.0326113
-0.381647 0.855667 0.107716
-0.538082 0.547186 0.232595
-0.619395 -0.00570541 0.180207
-0.182434 -0.578528 -0.0500563
-0.207654 0.919354 0.271543
0.542442 0.466305 0.197808
0.440141 -0.573751 -0.158596
0.299617 0.038574 -0.108377
-0.636089 0.0867213 -0.117528
0.56124 -0.195656 -0.183998
-0.456708 0.107733 -0.115513
0.650607 -0.139785 0.0484487
-0.746184 -0.104442 0.063272
0.452936 -0.244366 -0.387627
0.487629 0.730628 0.266831
0.130915 -0.472745 -0.112858
-0.420572 -0.0749804 -0.362025
-0.375711 -0.493984 -0.163055
0.507319 -0.427707 -0.313877
0.214283 -0.299185 -0.38483
0.325969 0.850956 -0.117939
0.719933 0.26173 0.0997199
-0.315947 -0.612633 0.0352402
0.0154321 0.954657 -0.110747
-0.515688 -0.579637 0.0916274
-0.730112 0.535071 0.00416636
0.490852 -0.348695 0.0799081
0.500224 -0.151308 0.215813
0.618484 0.350315 0.014774
0.108059 0.696661 -0.0051055
0.658231 0.0694307 0.161649
0.232923 -0.176415 0.118359
0.681455 0.331723 0.271543
-0.399185 -0.38394 -0.0685691
0.660621 0.0152738 -0.0138464
-0.387901 -0.31287 -0.388005
-0.0429453 -0.654662 -0.487583
-0.653196 -0.314746 -0.0616491
-0.535097 -0.129412 0.215893
-0.290102 0.673279 0.124916
-0.488792 0.576688 0.0997837
-0.63141 -0.316532 -0.353272
0.275878 -0.490447 0.198005
-0.36773 -0.0885196 -0.229594
-0.030972 0.700734 0.134153
0.405162 0.00273668 0.141039
-0.383849 -0.463767 -0.346597
-0.0608774 -0.68829 0.268055
-0.410964 0.0232298 0.143598
-0.36904 -0.392528 0.230996
-0.639428 -0.276776 0.236224
-0.721204 0.172639 -0.0348575
0.636247 0.207511 -0.100171
-0.537382 0.0693839 0.0119948
0.654094 0.00531962 -0.222781
0.316332 -0.370377 -0.0657611
-0.724312 0.547149 0.139536
0.440468 0.55757 0.200403
0.153776 0.937217 0.0349045
0.261613 -0.566268 -0.0500483
-0.109296 0.931338 0.113825
-0.44511 -0.6701 -0.168765
-0.559241 -0.490813 -0.309365
0.41264 -0.0475045 -0.330333
0.222639 0.662441 0.216845
-0.273985 -0.294823 -0.274112
-0.194508 0.687444 -0.0789905
-0.485896 -0.191252 0.108047
0.25053 0.8862 0.271543
0.401862 0.779211 0.123211
-0.748683 0.0324788 0.168112
0.553319 -0.21288 0.102122
0.352857 -0.490645 0.324039
0.0899427 0.92211 0.266825
0.238752 0.665655 0.0672465
-0.307575 -0.574961 -0.259696
0.412648 -0.246995 0.236908
0.16734 -0.563389 0.103634
-0.357043 -0.216567 0.236906
0.292725 -0.610404 -0.251672
0.139226 -0.453724 0.0149005
-0.367168 -0.0779229 0.0762324
-0.435523 0.825159 -0.00900331
0.662191 0.513417 0.223168
0.441476 0.0819479 -0.0909579
-0.263124 -0.414455 -0.204985
-0.278964 0.898496 -0.0406918
0.408551 -0.625492 -0.00152147
0.275841 -0.030174 0.147591
-0.69625 0.349157 0.00967887
-0.150178 -0.597992 0.262805
-0.609964 0.715347 -0.028588
-0.774157 0.419679 -0.0733883
0.415437 -0.584944 0.117842
0.217777 -0.185647 -0.325726
-0.408235 -0.0211502 -0.109239
-0.490974 -0.13175 -0.0409916
-0.684651 0.387608 0.172126
0.32132 -0.402226 -0.2521
0.531195 0.0342957 0.0184736
0.562062 0.444869 -0.0789905
-0.448394 -0.193389 -0.386612
-0.754503 -0.092788 -0.176803
0.567241 -0.31168 -0.142479
-0.520403 0.0569812 -0.209402
0.563663 -0.190387 -0.370912
-0.678995 -0.26155 -0.169212
0.552324 0.612996 0.144058
-0.141793 -0.68829 0.400435
0.388811 -0.216796 -0.276345
-0.292687 -0.364662 0.0865253
0.619255 -0.144885 0.191107
0.583012 0.610855 0.0144373
0.520738 -0.407569 -0.0410594
0.293689 -0.270432 0.236908
-0.578615 0.705532 0.175565
0.127631 -0.604602 0.239376
0.11631 -0.597992 0.396771
-0.20666 -0.562504 0.0661727
0.421895 0.761797 -0.00181533
-0.00386564 -0.68829 0.447192
0.580204 -0.154426 -0.0733844
-0.525669 -0.577698 -0.050135
0.501573 0.68109 -0.048076
-0.605321 -0.41346 0.0734065
0.240528 -0.31675 0.0966947
0.295023 0.873495 0.143778
-0.221311 -0.470813 -0.102534
0.0616868 0.926794 0.152556
0.421907 -0.125866 0.132154
-0.661035 -0.108325 -0.334479
0.534157 0.0151463 -0.212451
0.357472 -0.302899 -0.166181
0.626434 0.180552 0.155263
-0.780864 0.22528 0.238118
0.142723 -0.503395 -0.305555
0.0130584 -0.597992 0.283632
0.436026 -0.4679 -0.233062
0.652564 -0.1223 -0.226374
-0.669689 0.12658 0.135717
0.716669 0.257188 -0.0343943
-0.364972 -0.218873 -0.247792
0.172981 -0.622812 -0.1133
0.415405 -0.143727 -0.019334
-0.42731 -0.306664 -0.146503
-0.704949 -0.208036 0.0460302
-0.392765 0.636235 0.0972366
-0.28415 0.896947 0.178957
0.637751 0.30028 0.16567
0.184018 -0.416098 -0.366351
0.574595 0.426049 0.0844604
0.425406 0.567884 0.0900416
-0.788885 0.31694 0.160566
0.499938 -0.38516 0.236374
-0.450259 -0.289165 -0.293659
-0.380097 -0.481933 0.0739015
-0.727023 0.523572 -0.106382
0.328091 0.0211778 -0.295258
-0.491926 -0.129133 -0.292177
-0.0720758 -0.597992 0.151987
0.459494 0.543214 -0.0770172
-0.416792 -0.636212 0.0735688
0.323643 -0.2556 -0.388003
-0.487532 -0.536713 0.194612
0.468141 -0.358184 -0.388003
-0.215568 -0.68829 0.256914
-0.133733 0.959793 0.011706
-0.175096 -0.597992 0.450928
0.328773 -0.38175 0.136451
-0.0431704 -0.599451 0.528349
0.552134 0.0767532 0.178693
-0.334697 -0.561118 -0.0630168
0.411667 -0.455218 -0.353199
-0.471449 -0.418157 -0.306425
-0.790394 0.303954 0.0429721
0.340882 -0.0336276 -0.0417885
-0.622379 0.463377 0.213639
-0.511589 -0.293836 -0.388004
-0.297375 0.671131 0.230608
0.33838 -0.0490574 -0.153502
0.236772 0.900445 -0.0188977
0.21057 -0.388808 0.227089
0.0453087 0.704527 0.228072
0.270169 -0.542761 0.106641
-0.60417 -0.415835 -0.109077
-0.621467 0.019325 -0.211071
-0.472333 -0.0818297 -0.181812
0.0852111 -0.68829 0.195183
-0.740573 0.052423 -0.135152
-0.680328 -0.20525 -0.363895
-0.0224851 -0.68829 0.156047
-0.220363 -0.599308 -0.143541
-0.595155 0.502826 -0.0230775
0.45033 -0.0249982 -0.148165
-0.543749 -0.363395 0.236906
-0.517503 0.000129846 0.137512
-0.031476 0.70075 0.0252522
-0.773242 0.422847 0.221681
0.652571 -0.00684298 0.0853409
0.185954 -0.287423 -0.280282
0.257417 -0.174189 0.232414
0.412101 -0.501269 0.229173
-0.288715 -0.294784 -0.377057
0.38478 -0.636135 -0.217867
0.25754 -0.0942493 -0.345701
-0.0630679 -0.63411 -0.244253
0.453296 -0.0396232 0.0630319
-0.415328 0.626055 -0.0581238
-0.451507 -0.285737 0.0698175
-0.685927 -0.0374108 0.111468
-0.191141 0.943139 0.175066
0.608632 0.385332 0.211045
-0.455016 0.846185 0.186694
0.53893 -0.370057 -0.223422
-0.449614 -0.17863 0.234481
0.419809 0.0599407 0.0552682
0.468137 -0.147338 -0.369668
-0.742633 0.224104 -0.117403
-0.64951 0.614283 0.167905
0.441415 -0.456183 0.061462
0.436917 -0.465961 -0.0986837
0.0972064 -0.68829 0.4508
0.671759 0.0458755 -0.1116
0.346242 -0.333754 0.0382226
-0.677364 -0.264913 -0.273876
0.693043 0.412621 0.0316004
0.628369 0.519583 -0.117939
0.315476 -0.142859 -0.237865
-0.61114 -0.400786 -0.306952
-0.357732 -0.655719 -0.0479296
0.366339 -0.540225 -0.213478
0.344834 0.104059 -0.0517846
0.206749 -0.447131 -0.184567
0.0872004 -0.558394 -0.0970212
0.32981 -0.575277 -0.121571
0.164487 -0.383075 0.0889051
0.644684 0.490813 0.0621115
0.615786 -0.204288 -0.290486
-0.393042 0.0546922 -0.173806
-0.739089 -0.00769167 0.0230517
-0.521285 0.761392 -0.0218273
0.486484 0.699221 0.175484
-0.352322 0.869797 0.0149314
-0.437898 -0.0463251 -0.00479173
0.279114 -0.472634 -0.0358825
0.478651 -0.0579916 0.169852
0.616968 -0.0140728 0.200794
-0.422628 -0.319527 0.198912
-0.228092 -0.429279 0.057102
-0.465248 0.827378 -0.117939
-0.266196 -0.491372 -0.325095
-0.613629 -0.183986 0.224322
-0.539655 -0.0207747 -0.0243585
0.707359 0.244233 0.21338
-0.311966 -0.462803 0.200859
-0.731956 0.440242 0.0161516
-0.737055 -0.0762714 -0.285102
0.0855717 0.94501 -0.0310534
-0.390534 -0.617653 -0.240941
-0.0436765 0.934772 -0.0390293
-0.46189 -0.412363 0.233123
-0.465028 -0.203037 -0.111408
0.601878 0.523264 0.149461
0.512504 -0.301619 -0.0600613
0.251065 -0.595248 -0.168814
0.5248 -0.274885 -0.219005
-0.492685 -0.610375 -0.223527
0.230329 0.911333 0.0826763
-0.265482 -0.621962 -0.0426502
0.414293 -0.355934 -0.311887
-0.0217589 0.964127 0.134488
0.419243 -0.110408 -0.106248
0.357909 0.0996838 -0.147595
0.571747 -0.302389 0.119724
0.0500163 0.696282 0.0696601
0.620716 -0.0663431 -0.032949
-0.334177 -0.107885 -0.327691
-0.201707 0.694048 0.143946
-0.63268 -0.351695 0.160956
0.385236 -0.226618 0.0247392
-0.324279 -0.134234 0.174259
-0.0160601 -0.68829 0.3559
-0.687863 -0.243265 0.142322
0.309221 -0.648687 -0.0384465
-0.571598 0.713457 0.0684896
-0.198064 -0.485095 -0.00902423
0.521662 0.498906 0.112955
-0.562345 -0.502075 0.104347
0.352493 -0.505611 0.150677
0.111782 -0.476868 -0.223838
0.459263 -0.0232301 -0.247842
0.222217 -0.632549 -0.00136508
0.660746 0.578228 -0.0560748
-0.577374 0.733511 0.271543
-0.36057 -0.305116 0.0966927
0.281439 -0.0211034 0.057357
0.38028 -0.194683 -0.153853
-0.391253 -0.405732 0.0199239
-0.582223 0.0199835 0.0734423
-0.469141 -0.00972773 -0.313822
-0.489366 -0.492296 -0.366212
-0.0618476 0.700248 0.218672
-0.712493 0.311466 -0.0789905
0.334497 0.619478 0.0597039
-0.709057 0.316897 0.0925409
-0.756167 0.125178 0.159675
-0.357048 -0.499708 -0.268906
0.69127 0.412422 0.232595
0.379989 -0.195483 0.16959
-0.277837 -0.549938 0.126101
0.231491 -0.378487 -0.236834
-0.234908 -0.39906 0.185591
0.369938 0.601374 0.232595
-0.458119 0.103081 -0.0104746
-0.293034 -0.220078 0.160869
-0.433197 0.826516 0.270391
-0.707596 0.0697694 -0.0546833
-0.534502 0.0837648 -0.0806461
0.162851 -0.62931 0.328269
-0.574207 -0.102458 -0.349043
0.353992 -0.312457 -0.264786
-0.62176 -0.379563 -0.0115703
-0.582098 -0.461346 -0.221671
0.316956 -0.170436 0.0936077
-0.107124 0.698163 -0.0183578
0.0291327 -0.597992 0.401278
-0.616506 0.0504955 -0.0311231
0.100081 -0.522486 0.0659794
0.380613 0.831254 -0.0528783
0.593931 0.0728394 -0.0282722
0.594357 0.0564672 0.0995605
-0.395087 -0.440749 0.15385
0.355503 -0.308308 0.181755
-0.641045 0.627606 -0.00976135
-0.0660791 -0.597992 0.240716
-0.651726 -0.0363091 -0.276434
-0.376854 -0.490843 -0.0165479
0.642853 0.410967 -0.0635517
-0.143624 -0.597992 0.370225
0.522074 -0.404812 0.144799
0.40505 -0.126625 -0.283292
0.245252 0.882056 -0.117939
0.0164183 -0.676608 0.531053
0.281694 0.642169 -0.00481464
-0.611207 -0.0916225 0.184112
-0.476654 0.0564623 0.0866489
-0.72704 0.454701 0.136701
0.400468 -0.545208 0.028384
-0.201447 -0.607892 0.194437
0.291613 -0.358846 0.23598
0.262085 -0.519421 -0.21818
-0.69686 0.581687 0.245451
-0.0618955 -0.632339 -0.0419399
0.63166 -0.178853 -0.137248
-0.501924 0.777281 0.158798
0.39153 -0.564641 -0.0633056
0.557007 0.661835 0.215986
-0.407289 -0.407222 -0.150306
-0.334118 -0.314882 0.236906
-0.23551 0.687123 -0.00449887
-0.595254 0.702328 -0.117939
0.293144 0.0214189 -0.214723
0.690102 0.331093 0.0608225
-0.322815 0.912989 0.0818047
0.648601 -0.0903684 0.133248
0.533692 -0.269843 -0.387504
-0.557396 0.536663 0.13808
0.705475 0.36162 -0.0341842
0.26759 -0.419601 -0.37556
0.173835 0.923083 0.262876
-0.474465 0.594681 0.180551
0.344722 -0.520222 -0.346412
-0.544818 0.546208 0.0279058
-0.233392 0.93421 -0.101068
0.623991 0.0858846 0.235994
0.0225574 -0.68829 0.265345
0.569304 -0.178123 0.0280493
0.308241 -0.568154 0.188841
-0.531124 -0.366495 -0.33319
-0.737061 0.254656 0.00238928
-0.404097 -0.370444 -0.330602
-0.731406 0.151621 0.0543099
-0.429119 0.610908 0.0220736
-0.301635 -0.48732 -0.0894956
0.289542 -0.250281 0.0966947
-0.749152 -0.116891 -0.0262511
-0.132263 0.952134 0.267055
0.312887 -0.379843 -0.147463
0.18911 -0.512126 0.164182
-0.649321 0.0653705 0.208707
0.298107 0.0340636 -0.0232747
-0.721691 0.2751 0.210571
-0.236758 -0.377922 -0.273619
-0.478987 -0.0512608 0.188589
0.333651 -0.0662086 -0.356836
0.493857 -0.342159 -0.298373
0.659324 0.235331 0.0248477
-0.511446 -0.607025 -0.125157
-0.720662 -0.169625 0.116515
-0.446158 0.818174 0.0716135
-0.639849 0.441218 0.00621836
-0.468247 -0.194193 0.0278142
-0.713701 -0.189989 -0.146802
-0.361678 0.865289 0.189065
0.597694 0.532286 -0.00119176
-0.147338 -0.68829 0.31924
-0.329538 -0.404871 -0.376178
0.389869 -0.647963 -0.0943317
0.520284 -0.284702 0.0395544
-0.193454 -0.672973 0.475866
0.413213 0.769344 0.202768
-0.585551 -0.398538 -0.383838
0.353514 -0.0483283 0.193104
0.452356 -0.548564 -0.234341
0.599064 -0.246064 -0.0885981
0.0328313 0.96032 0.219991
-0.540256 -0.0418993 -0.219332
0.614806 0.35752 0.0980932
-0.671325 0.395681 0.070453
0.272485 -0.536396 0.0238965
-0.401802 0.0774624 -0.0645568
-0.417531 -0.333532 -0.0036701
-0.40664 -0.147954 0.0888762
0.59598 -0.220392 0.177378
0.34202 -0.466483 0.248491
-0.0641258 -0.637261 -0.41256
0.200422 -0.483203 -0.0442041
-0.501782 -0.614339 0.0212328
-0.108553 0.70584 0.116951
0.331597 0.0317775 0.132121
0.371793 -0.652861 0.0718137
-0.511563 -0.120734 0.13436
-0.778411 0.372749 -0.00935195
0.492577 -0.080982 -0.333528
0.492697 -0.465385 -0.16375
0.2527 -0.0960403 0.185222
0.713512 0.323664 0.166907
0.639942 0.292129 -0.0345806
0.0810912 0.95391 0.0806731
0.163778 0.685898 0.0516214
0.268822 -0.186587 -0.387466
0.197377 0.67787 0.133546
-0.179234 -0.534472 -0.124761
0.206047 -0.562851 -0.272647
0.140165 0.683292 0.219994
0.605654 -0.0990924 -0.167503
-0.465258 -0.202405 -0.303017
-0.21236 0.916491 -0.00287719
0.443272 0.555454 0.00435462
-0.290208 0.671848 -0.0789905
0.616241 -0.129172 -0.335781
-0.560245 -0.506406 -0.107445
-0.454285 -0.0970623 0.0525836
0.15569 0.679816 -0.0674774
0.24699 -0.192063 -0.253523
0.0668059 0.694709 -0.0712686
-0.360935 -0.0377923 -0.306475
0.268265 -0.0945142 0.0903793
0.555706 -0.101036 0.180842
0.545568 -0.356369 0.0120556
-0.066881 0.964463 0.0577336
-0.3408 -0.43908 -0.205485
-0.0813456 -0.68829 0.463646
0.674229 0.197991 0.0968421
0.0996668 -0.510154 -0.0377732
0.094219 -0.597992 0.311319
-0.360539 -0.0353777 0.14272
0.314379 -0.543333 0.282778
0.65403 0.250817 0.271528
-0.673351 0.575501 0.0373002
-0.139125 -0.68829 0.242791
0.511951 -0.425684 0.0590275
-0.372512 -0.00171496 0.0685962
-0.238383 -0.578775 -0.215235
0.0979704 0.942394 -0.114736
-0.349927 -0.564825 -0.176809
-0.568637 0.0360777 -0.129964
-0.115781 0.962044 0.183592
-0.432223 -0.486221 0.209907
-0.460432 -0.261215 0.167211
-0.502631 -0.122497 -0.124697
0.32272 -0.398379 0.00512761
0.478111 -0.433769 -0.38509
0.633143 0.444952 0.132274
0.392979 -0.202751 -0.36589
-0.501504 -0.071745 -0.343908
-0.700108 -0.00347709 -0.172357
-0.433911 -0.127959 -0.228489
-0.642616 -0.336562 -0.133723
0.28777 -0.322543 -0.388003
-0.725202 0.186226 0.192422
0.607997 -0.00162232 -0.163
-0.698364 -0.0140489 0.199555
0.647684 -0.145813 -0.0408741
0.508588 0.00325865 0.0961169
-0.221722 -0.597992 0.292037
-0.303502 -0.19777 -0.287111
0.592836 0.542758 0.226245
-0.713612 0.49165 0.0728287
-0.369923 -0.142293 -0.383781
0.347122 -0.57995 0.0677007
0.364265 0.842612 0.110555
-0.349973 -0.564698 0.0813794
-0.472408 -0.0427052 -0.0776019
0.403129 -0.177456 0.081472
0.356993 -0.583716 -0.295416
-0.387556 -0.238278 -0.388005
-0.310172 0.897303 -0.117939
-0.402624 -0.535251 -0.328938
0.304744 0.844448 0.217879
-0.092798 -0.597992 0.31194
0.244994 -0.633832 -0.0977902
0.473489 0.0465409 -0.0268109
-0.058943 -0.722678 -0.52852
0.470979 -0.456302 0.225265
0.526507 0.681801 -0.117939
-0.291768 0.905707 0.271543
0.459163 -0.417595 0.000760632
-0.276845 -0.283136 0.125523
0.669749 -0.0591939 0.0221094
0.299506 0.635177 -0.0783122
-0.631355 0.0480889 0.121215
0.345864 -0.289239 -0.0209717
0.160627 -0.349858 -0.342893
-0.441086 -0.268814 -0.223067
0.143658 0.909922 0.106006
-0.331718 -0.427562 0.0606352
0.290199 0.852022 -0.0351484
-0.686682 -0.2457 -0.0454114
0.489356 0.0375181 -0.152546
0.401451 -0.116546 -0.362473
-0.449884 -0.588312 0.147954
0.389281 -0.0674697 0.00220102
0.578406 0.569484 0.0908126
0.645286 -0.0698603 -0.277341
-0.703984 0.0582174 0.100953
-0.3842 -0.470659 -0.0941165
-0.312648 -0.353627 -0.242441
0.600589 0.160981 0.220918
0.580883 -0.152949 -0.251659
0.155956 -0.355499 0.166082
0.592706 -0.127242 0.103723
0.662191 0.574736 0.174181
0.633785 0.466484 0.271543
0.35857 -0.25433 -0.220755
0.482379 -0.225506 0.234533
0.263119 0.649004 0.146445
-0.390013 -0.664835 -0.112707
0.414127 -0.10169 0.0638268
0.594248 -0.255993 -0.207774
0.459139 -0.54199 -0.0793322
-0.381856 -0.431549 -0.281942
0.288874 -0.445818 0.131501
-0.680548 -0.0882536 0.164348
-0.0259506 -0.632959 0.10902
0.400204 0.817151 0.038903
0.619946 -0.203007 0.0765492
0.421733 -0.338932 0.236908
-0.368456 -0.0178949 -0.216165
0.541564 -0.364624 -0.101284
0.555317 0.462249 -0.00199463
-0.601602 -0.42113 0.151785
0.0390072 0.697314 0.149249
-0.58673 -0.256129 -0.38758
0.642616 -0.0187257 -0.101565
-0.072284 -0.597992 0.463041
0.211362 -0.458117 0.0218345
0.244111 -0.119359 -0.280178
0.384744 -0.554004 0.31561
0.138083 -0.67471 0.247932
-0.351754 0.644787 0.163821
0.468939 -0.521782 0.0671309
0.27992 -0.0292666 -0.310308
0.495287 -0.339053 0.151695
0.539583 0.683923 0.129957
0.660868 0.161283 -0.0274962
0.519136 0.501598 -0.0780063
0.315931 -0.417032 -0.323435
-0.353634 -0.554638 0.0110973
-0.430418 -0.411182 -0.382575
0.383815 -0.306274 -0.388003
-0.291579 -0.386108 0.22646
0.255006 -0.538868 -0.125749
-0.428462 -0.303502 -0.0755888
0.231737 0.879519 0.175185
0.17716 -0.601565 0.0436923
0.551265 -0.217343 -0.264362
0.492114 0.737145 -0.00584661
-0.2433 0.677479 0.0652154
-0.54647 -0.20427 0.233336
-0.347362 0.903345 -0.0574365
0.536422 -0.331782 -0.353607
-0.699347 0.592794 -0.0415913
0.0445955 -0.68829 0.391803
0.389579 -0.563149 0.179683
0.527939 0.648438 0.0621852
0.446282 0.740596 0.0731754
0.619992 -0.0679179 0.0724671
0.547428 -0.00739184 0.192118
0.465842 -0.403073 -0.262635
0.344397 -0.598019 0.135584
-0.75296 0.369633 -0.117939
-0.0998525 -0.661857 0.13867
-0.764485 0.275279 0.103399
-0.762346 -0.0851607 -0.107551
0.341889 -0.516826 -0.274844
-0.208236 -0.453058 -0.240049
-0.134981 -0.603677 0.511802
-0.667999 0.585179 0.106293
0.35871 -0.299497 -0.095294
-0.285016 -0.462468 -0.152453
0.323439 -0.196112 0.236467
0.501758 -0.324983 -0.162137
-0.407102 0.068075 0.0585862
0.606314 0.00375372 0.0280702
0.409451 0.0174533 -0.275256
-0.468213 -0.128048 -0.374315
0.494483 0.523907 0.171662
0.585455 -0.0209868 -0.241865
0.469408 -0.508574 -0.288268
-0.4783 -0.340821 0.236906
0.379235 0.795853 -0.112339
0.114558 0.916852 0.196
0.308393 -0.649536 -0.191431
0.472701 0.013692 -0.0875482
-0.00468744 0.933295 0.271513
-0.544621 -0.53862 0.044286
-0.340569 -0.140046 0.107487
0.209011 -0.232324 0.210672
-0.19674 -0.495006 0.0983502
-0.715638 0.486951 -0.0491309
-0.661888 -0.296825 0.00430183
0.648035 0.261513 0.0930648
0.420579 -0.179855 0.2249
0.0388917 -0.66709 0.133889
0.420596 -0.501447 0.126645
0.268632 -0.438629 -0.212575
-0.699281 0.358796 0.232465
0.214679 -0.242036 0.111757
-0.0531954 -0.68829 0.526003
0.545676 0.622658 -0.0416202
0.35881 -0.253671 -0.329498
-0.14278 -0.597992 0.161021
0.63777 0.452008 -0.117939
0.462929 0.755551 0.145201
0.601819 0.112924 0.149302
0.404765 -0.0969537 0.205046
0.17446 0.931018 -0.029611
-0.00993499 -0.639151 0.201374
-0.0774189 0.956235 -0.094004
-0.455619 -0.670369 -0.0966596
-0.494839 0.818639 0.0230796
-0.492527 -0.173035 0.18243
0.210536 -0.459868 0.201454
0.594772 -0.122749 -0.00557766
-0.539558 -0.540939 -0.26845
-0.73934 -0.0835699 0.12713
0.255324 -0.38384 0.08686
0.207651 0.674837 0.00150274
0.136539 -0.438629 -0.323449
-0.442319 0.0813373 -0.211412
-0.677628 0.0553257 -0.196632
-0.743063 0.486425 0.194043
-0.16391 0.925146 0.0748728
-0.415608 0.869848 -0.056025
-0.0832711 -0.68829 0.360032
0.416227 -0.510946 -0.160656
-0.556987 0.527238 -0.0727369
-0.486107 0.824925 -0.0532578
0.490716 -0.301237 0.236908
0.534777 -0.253192 -0.136494
0.62784 0.459475 0.202861
0.405847 0.09142 -0.0272811
0.209186 -0.474354 -0.345017
0.0975929 -0.555714 -0.185625
-0.414275 -0.234306 0.0966927
0.667444 0.133414 0.179074
0.532869 -0.257341 0.150185
0.345377 0.0758796 -0.21509
0.628786 0.324904 0.231111
-0.231549 0.680109 0.22426
-0.30588 0.66066 0.0492666
0.364596 -0.675478 -0.00501087
0.628611 -0.18514 -0.203508
-0.157803 0.925807 -0.0402445
-0.227967 -0.623535 0.41959
0.66535 0.49902 0.153912
-0.761795 0.150532 0.249697
0.287545 0.648078 0.217089
0.403879 -0.175395 -0.0815336
-0.746891 0.385101 0.149731
-0.688752 0.0265529 -0.103108
-0.514617 -0.112342 -0.222584
0.583124 0.0581457 -0.188419
-0.353605 -0.301973 -0.247792
-0.210602 -0.68829 0.377877
0.677314 -0.0311642 -0.17309
-0.379454 -0.647853 0.0205664
0.241672 -0.601052 0.0826972
0.371876 0.837544 0.175763
0.112889 -0.68829 0.386913
-0.280629 -0.254161 -0.32595
-0.64925 -0.322882 -0.286876
-0.424084 -0.315531 0.126677
0.457745 0.728798 -0.0642759
0.315092 -0.58257 -0.0156902
-0.372801 0.645088 0.0354385
0.442891 -0.512361 -0.360608
-0.50551 -0.137362 0.0467583
0.463951 -0.407182 -0.0890194
-0.577851 0.508627 0.197851
0.619529 -0.203866 -0.0305234
0.530837 0.049339 -0.0579804
-0.242327 -0.597814 0.0245419
-0.772254 0.205617 0.0412309
0.397973 0.594244 0.0304997
-0.49367 -0.468249 0.223473
-0.738373 0.0682214 0.221316
0.593927 0.39603 0.148671
-0.296278 0.915051 0.0227439
0.721565 0.264 0.0297925
0.179709 -0.316822 0.119959
-0.215161 -0.434033 0.121982
0.553114 0.667356 0.00503099
0.620452 0.346454 -0.0635756
-0.447332 -0.300785 -0.36586
0.462071 -0.411272 0.16753
-0.762351 -0.018123 -0.180131
0.662191 0.530704 0.0137361
0.56071 -0.173327 0.215976
-0.789422 0.357409 0.218125
-0.686623 0.383723 -0.0436005
-0.223389 -0.451514 -0.170834
0.290154 -0.4423 -0.0913075
0.0189295 0.954219 -0.0259283
-0.452939 -0.114567 0.220869
0.505956 -0.438045 -0.226974
0.374059 -0.602627 -0.158722
0.220812 -0.484928 -0.127796
-0.646995 0.671138 0.138888
0.650302 0.139619 0.0868989
0.304271 -0.312993 0.0966947
0.359762 -0.430265 -0.380763
-0.77249 0.247195 0.160158
-0.567163 -0.0360651 0.154572
0.411666 -0.498728 0.298766
0.236163 -0.32743 0.236441
-0.558656 -0.457914 -0.363919
0.386415 0.592366 0.135119
0.436801 0.0729121 -0.156784
0.678609 0.246103 0.146509
0.530225 0.64688 0.271543
0.474083 0.0174902 0.040425
-0.503254 -0.230979 -0.387756
0.110577 -0.627391 0.461951
0.686116 0.436873 0.089691
0.385006 -0.0500157 -0.110698
0.10154 -0.61481 0.182634
-0.667153 0.415386 0.226163
0.488538 -0.47396 -0.0579754
0.469386 0.0384206 -0.212889
-0.0325897 -0.631639 -0.184297
-0.324099 -0.613644 -0.20717
0.426808 0.786681 -0.0594507
0.0456494 0.704495 -0.00249966
0.586185 0.408076 0.00664669
0.6898 0.240771 -0.0888361
-0.356421 -0.147596 -0.247879
0.342819 -0.0954894 -0.206954
-0.552934 0.0209497 -0.249177
0.397218 -0.415694 -0.303727
-0.736211 0.254949 -0.0632399
0.239943 -0.362822 -0.384782
0.534692 -0.0298742 -0.277366
0.00780586 -0.597992 0.489327
0.587757 -0.269378 0.0690893
-0.229439 -0.537894 -0.269831
0.549191 -0.221854 -0.0226242
-0.738558 -0.122455 -0.236377
0.360694 -0.248494 0.198399
-0.633222 0.675486 0.208734
-0.575898 -0.317402 -0.388005
0.198293 -0.242373 -0.342165
-0.321821 -0.526463 0.163192
0.30184 -0.410195 0.202658
-0.686542 0.550564 0.18862
-0.0900198 0.699371 0.0457015
-0.736464 -0.143054 -0.11333
-0.739383 0.437227 0.271543
-0.25722 -0.318476 -0.328873
0.382051 -0.154866 -0.233253
-0.555228 0.769812 0.189343
-0.644279 0.435579 0.128557
-0.792982 0.281683 0.211206
-0.623916 0.650763 -0.0645797
0.48749 -0.356003 -0.033958
-0.683483 0.0245078 -0.0202963
0.335945 -0.362044 -0.201848
-0.584526 0.502673 0.0460561
-0.421734 -0.34476 -0.200421
0.535386 -0.251868 -0.325299
-0.698339 -0.221665 -0.224121
-0.666658 0.145395 0.194143
-0.458794 -0.661361 0.0364894
-0.325402 -0.507031 -0.329343
0.116626 -0.504792 0.122376
-0.410428 0.872954 0.230857
-0.500666 -0.554295 -0.337698
0.621275 -0.0215467 0.136283
0.570513 -0.304933 -0.0787614
0.303172 -0.552708 -0.315718
0.634513 0.4412 -0.0102923
0.575688 0.574246 -0.0633296
-0.396874 -0.43584 -0.0367023
-0.542099 -0.513834 0.160609
0.588717 0.0283598 -0.0911421
-0.761398 -0.0610218 -0.00539736
-0.391161 0.00176348 -0.055518
-0.767614 0.188875 -0.070659
-0.604303 -0.36005 0.232552
-0.233113 0.912049 0.208287
-0.375105 -0.450098 0.210367
-0.760063 0.306436 -0.116301
0.0673468 -0.597992 0.238547
-0.113886 -0.626371 0.206157
-0.564367 0.761837 0.115583
-0.512175 0.0853945 -0.13694
-0.180855 -0.54627 0.0138914
0.433318 -0.58782 0.0559515
-0.628213 0.681461 0.0179994
0.613822 -0.0813316 -0.108701
-0.213834 -0.479183 -0.297554
-0.349787 -0.15689 0.231067
-0.34795 0.654283 -0.0780661
-0.41641 -0.382166 0.160965
0.173365 -0.40726 -0.215003
-0.696552 -0.212274 -0.303081
-0.247748 0.938035 0.154324
-0.380856 -0.642711 -0.18713
-0.409564 0.00474187 -0.313594
-0.703674 0.330815 0.166741
0.676553 -0.0481101 -0.0454323
0.575526 -0.164596 0.155121
-0.651072 -0.319126 -0.204993
0.421468 -0.393275 -0.401529
-0.656982 0.00844543 0.0562762
-0.389196 -0.599645 0.114009
-0.718303 -0.124196 -0.327017
0.649233 0.575641 0.232595
-0.251978 -0.336442 0.136246
0.110474 -0.533471 -0.242922
0.289707 0.639221 0.0937432
0.605406 0.588088 0.186393
-0.428143 -0.0210944 0.181608
0.127623 -0.600478 -0.144692
-0.0840371 -0.68829 0.189555
0.222263 -0.174079 0.184436
0.627779 0.528855 -0.0526392
0.231044 -0.308532 -0.24779
-0.374846 -0.496362 0.159268
-0.56766 0.74745 -0.056276
-0.750712 0.367614 0.0527032
-0.626876 -0.0275403 0.125568
0.446033 -0.0595804 0.118398
-0.659819 -0.259097 -0.349939
-0.460091 0.843138 0.123502
0.454781 -0.427122 -0.194295
0.161916 -0.62047 -0.0528883
-0.780156 0.277925 0.271543
-0.553524 -0.294944 0.236906
0.414021 -0.51574 -0.0387812
-0.270153 -0.58435 0.0749455
-0.574195 -0.477643 0.032979
0.363532 -0.673418 -0.166004
0.543767 -0.360083 0.103488
0.447216 -0.443569 0.120416
-0.536894 -0.00558687 0.0456935
0.342597 -0.320992 -0.341859
0.414065 -0.441983 0.231106
0.628755 0.526825 0.270199
0.433384 -0.0487795 -0.199382
-0.415423 -0.0712609 -0.192939
0.650717 0.38194 0.268857
0.44325 -0.452191 -0.300043
-0.575391 0.750703 0.00321108
-0.477462 -0.623545 0.0998275
0.427285 -0.0655392 -0.273204
-0.651582 -0.294019 0.181358
-0.502134 -0.080199 0.0138357
-0.586042 -0.453212 -0.163672
0.143926 -0.471032 -0.0544163
-0.460764 -0.260304 -0.159724
-0.342978 0.896713 0.143235
0.579321 0.431526 0.232043
0.318163 -0.410899 0.0868102
0.605637 -0.0669965 0.178545
-0.73076 0.00057013 0.122496
0.584562 0.0569414 0.0388691
0.625586 -0.0557553 -0.201236
-0.75428 0.3467 -0.0557053
0.524913 -0.398957 -0.174667
-0.763296 0.455208 0.0683113
0.65432 0.220833 0.207162
0.279028 -0.47287 -0.266464
0.32299 -0.0246237 -0.10287
-0.441854 -0.279779 0.236906
0.644498 0.404925 0.0645012
0.716528 0.302061 0.220834
0.414718 -0.514226 -0.26933
0.521829 -0.281343 -0.276687
-0.389978 -0.0470373 0.0326155
0.568407 -0.309276 -0.202097
-0.468644 -0.193102 -0.0543755
-0.548546 -0.530529 -0.0256992
0.20773 -0.412531 0.0643149
-0.40536 0.875449 0.0372265
0.656864 0.216097 -0.0468727
0.0917686 0.92172 0.0338885
-0.622666 -0.143053 -0.360101
0.292574 -0.319524 -0.24779
0.155185 -0.43294 0.196297
0.319744 -0.0531664 0.0203622
-0.516002 -0.0629861 0.14595
0.645187 0.30016 0.0246176
0.0628862 -0.682901 0.497552
-0.748107 0.0300791 -0.0451016
-0.671358 -0.233104 0.19644
-0.274724 -0.608764 -0.178149
-0.310753 -0.347176 -0.385554
0.43931 0.0250238 0.10057
-0.120251 -0.597992 0.422705
0.270656 0.861778 0.0254643
-0.228226 -0.635878 0.237118
-0.748389 0.471568 -0.117939
0.474637 0.540901 0.0781151
0.337036 -0.359045 -0.2937
-0.686044 0.574299 -0.117939
0.0016907 0.933027 0.180264
-0.386621 -0.575399 -0.29123
-0.626064 -0.370691 -0.0680432
0.442655 -0.568569 -0.0313034
0.337576 -0.324654 0.236908
0.650418 0.0325734 0.204797
-0.159227 0.956595 0.125921
0.00750603 -0.597992 0.348323
-0.334567 -0.561474 -0.120208
-0.125752 0.704219 -0.0720804
-0.521253 -0.419537 0.234768
0.379366 0.0871606 0.0255301
-0.403327 0.623222 0.151818
0.66084 0.326847 0.120754
-0.637259 0.444514 0.0685783
0.508238 -0.200087 -0.380003
0.481808 -0.293485 -0.388003
0.480538 0.705339 0.119183
0.434227 -0.092015 -0.0463218
-0.109064 0.705792 0.187447
0.0330495 0.93043 0.100058
0.690086 0.423271 -0.0343993
0.424416 -0.595933 -0.21116
-0.434493 -0.213912 -0.247792
-0.691933 -0.234873 -0.11956
-0.758882 0.319593 -0.00496405
0.123475 -0.583261 0.0392048
-0.561041 0.038312 -0.0319748
0.447996 -0.0541854 0.00788785
0.323138 -0.219156 -0.24779
0.500539 -0.449216 -0.107644
-0.602636 0.484302 -0.0762193
0.321299 0.836649 0.271543
0.395811 0.783947 0.271543
-0.714113 0.155761 0.116137
0.20189 -0.520103 -0.312485
0.537595 -0.247066 -0.0803084
0.220778 -0.603724 -0.215848
-0.363402 -0.368455 0.0921026
-0.755972 -0.0492756 0.0705566
0.704675 0.3654 0.203869
0.49603 -0.458512 0.0159803
-0.476266 -0.0544673 -0.13267
0.529727 -0.34051 0.208049
0.470903 -0.510324 -0.19731
-0.513896 -0.1763 -0.379584
0.635772 -0.140728 -0.276794
0.178442 -0.338918 -0.258842
0.389101 -0.170447 0.0274894
0.219947 0.884213 0.0344563
0.09987 -0.509596 -0.153659
0.70043 0.313332 -0.00597412
-0.38783 0.0382961 -0.102281
-0.320103 -0.619846 -0.0872583
-0.68412 -0.250983 0.075573
-0.523911 -0.0868093 -0.0477463
-0.235775 -0.680844 0.322687
-0.43885 -0.355218 -0.376482
-0.633927 -0.354478 0.0647283
-0.112276 0.962485 -0.0505035
0.204132 -0.234431 -0.282921
-0.734203 0.0222367 0.0703384
0.353278 -0.686687 -0.0768827
-0.534439 -0.559616 -0.106161
0.0522596 0.927991 -0.0727289
-0.137215 -0.68829 0.459833
0.370803 0.0627996 0.0822151
0.393009 -0.0731196 -0.161046
-0.53102 -0.351046 -0.388003
0.465476 -0.528923 -0.133347
0.591584 -0.261486 -0.146517
-0.553011 -0.00685393 -0.177697
-0.415189 -0.339967 0.0582834
-0.728404 0.195022 0.254573
0.477462 -0.03479 -0.299351
0.413796 0.575298 -0.0767403
-0.719033 0.558142 0.064298
-0.627966 0.0625316 0.0673999
0.334327 -0.629784 0.0234771
0.493218 -0.464311 0.0960203
0.221372 -0.567629 0.122489
-0.504003 -0.44213 -0.344843
-0.307028 -0.253657 -0.256215
0.591242 -0.225775 -0.335665
0.546302 -0.228135 0.0365163
-0.77103 -0.00709698 -0.124693
0.553643 -0.23701 0.232823
0.114195 -0.470236 0.0787726
-0.452253 -0.648468 -0.223424
-0.122177 -0.64335 0.278295
0.666569 0.124254 0.241612
-0.524623 -0.0848519 -0.285169
-0.696374 0.36452 0.11798
0.644008 0.0251673 -0.0677981
-0.479479 0.0278159 -0.274458
0.651737 0.376387 0.16443
-0.787656 0.24394 -0.0920347
0.136155 -0.44765 -0.183651
0.523101 -0.149572 -0.363032
-0.791134 0.253496 -0.00919257
-0.731859 -0.152548 0.0400575
0.28611 -0.498963 0.0622071
0.130558 0.913434 -0.0581936
-0.413659 -0.220452 0.236906
-0.749639 -0.0641197 -0.232755
0.500682 0.508623 0.22433
0.660193 0.034724 -0.176506
-0.581808 -0.40839 0.218464
0.309527 0.875022 0.0802498
0.668623 -0.102638 -0.0683629
0.518885 0.708635 0.21901
0.583937 -0.146308 -0.193079
0.584069 0.623449 0.0815109
0.493825 0.724375 -0.105795
-0.500194 0.57816 0.0312737
0.306861 0.0573548 -0.17548
0.34238 -0.603386 -0.205973
-0.621467 0.701615 0.0880962
-0.613435 -0.396732 -0.159664
0.274996 0.892024 0.22285
-0.621015 -0.3811 0.116223
0.469055 -0.396087 0.0966638
-0.187623 -0.597992 0.334915
0.32537 -0.511807 0.207774
-0.670504 -0.0103324 -0.22875
0.28832 -0.0561737 0.197027
0.240806 -0.124424 0.139945
-0.237682 -0.390772 0.0971469
-0.665403 -0.289577 -0.117363
-0.067389 0.933773 0.148924
0.298593 -0.625244 -0.090926
0.327472 -0.199886 -0.387655
0.579038 -0.156959 -0.127947
0.35986 -0.0149474 -0.321061
0.607479 0.569233 -0.109204
0.233511 -0.237273 -0.383483
0.494189 -0.34144 -0.235742
-0.641661 0.0375181 -0.140264
0.67867 0.387575 -0.108733
-0.751497 0.486132 -0.0062341
0.415852 -0.51176 0.0730319
0.552439 -0.342201 -0.302744
0.363355 -0.137515 0.0774109
-0.347725 -0.275083 -0.388005
-0.485829 -0.216883 0.221671
0.115278 0.695515 0.0936057
-0.280326 -0.264168 0.199941
-0.406156 -0.410338 -0.204347
-0.689465 0.545037 -0.0725915
0.489402 -0.351849 -0.0949712
0.434655 -0.533297 0.180609
0.6079 -0.0942074 -0.246799
0.279977 -0.515814 -0.0837031
-0.631771 -0.226527 -0.383442
-0.0171638 -0.597992 0.149225
0.0580122 -0.597992 0.453785
0.446857 0.76956 0.261554
-0.533919 -0.0593105 -0.167235
0.285428 -0.129661 -0.381002
0.175737 0.900187 0.21414
0.536905 0.0323064 0.131555
-0.644718 0.621826 0.235817
0.505867 -0.316048 -0.0028742
-0.184689 0.948535 0.232595
0.621047 -0.187328 0.137765
-0.790066 0.354197 0.10856
0.22647 0.912849 -0.070142
0.406415 -0.145652 0.182428
-0.727274 0.191918 0.0148965
0.25862 0.867787 0.0961339
0.654882 -0.130972 -0.173501
0.460966 0.551277 0.140096
0.298309 -0.0603524 -0.195817
-0.0292158 -0.63839 -0.285497
0.293948 -0.580267 0.136742
0.302888 0.0382851 0.0864686
0.685112 0.440221 0.187336
-0.472861 0.105928 -0.0645777
-0.236186 -0.451027 0.00653911
-0.730164 0.270956 0.0528117
0.44776 -0.0548339 -0.0968947
0.388835 -0.216729 0.114716
-0.242361 0.93965 -0.040387
0.473536 0.744848 0.199811
-0.733904 0.434514 0.186173
-0.48327 0.580215 0.231068
0.240537 -0.578624 0.0297148
-0.452126 -0.238484 -0.358529
-0.414227 -0.365387 -0.118182
-0.0342582 0.934542 0.0872386
0.525214 -0.273984 0.100241
0.114904 -0.602939 -0.0882932
-0.343896 -0.535841 -0.220946
0.259169 -0.562849 -0.273903
-0.732777 0.437828 -0.0389087
0.554491 0.609848 0.205974
0.558336 -0.317616 0.168673
-0.53242 -0.563778 -0.219409
0.3916 -0.209132 -0.0298779
0.423797 -0.607452 -0.0969127
0.367529 -0.275268 0.035566
-0.176082 0.690268 -0.0295014
-0.486167 -0.167734 -0.146381
0.543674 0.0553367 0.072233
0.33069 0.828638 -0.0698402
0.553837 -0.113497 -0.339836
-0.65998 -0.0400635 0.170555
-0.37207 -0.00343725 -0.266759
0.616558 0.552187 0.0587855
-0.010952 0.700111 0.204996
0.342942 -0.342819 -0.120781
-0.305352 -0.209362 0.210922
-0.631963 0.0753855 -0.179788
0.502263 0.680251 0.00938103
0.665617 0.280848 -0.112905
0.479374 -0.373649 -0.338964
-0.637314 0.0464383 -0.0792824
0.437264 -0.465207 -0.00352965
-0.406441 0.874916 0.163233
0.433682 -0.472994 0.190494
-0.561931 0.723253 0.222378
-0.045088 0.934712 0.0203184
0.641603 -0.146361 0.10191
-0.432193 -0.316025 -0.244295
-0.704787 -0.20837 -0.00648413
-0.354002 -0.508079 0.112525
0.277554 -0.499695 0.146352
-0.460384 -0.261346 0.0209181
-0.31718 -0.609245 -0.0170898
0.384843 0.102018 -0.102649
0.279421 0.889846 -0.0789188
-0.729674 0.27279 0.144021
0.31322 -0.424478 -0.188939
-0.383428 -0.427228 0.104577
-0.457326 0.604184 0.131407
0.6219 -0.198976 -0.0864096
0.551802 0.0807038 0.00169997
-0.545731 -0.026857 0.0926355
0.0216848 -0.68829 0.213065
-0.386093 -0.309781 0.236906
-0.62457 -0.0739803 -0.319726
0.352048 -0.317799 0.117207
0.712246 0.329644 0.112121
0.236599 -0.141997 -0.348028
-0.116521 0.930421 0.0536704
0.570886 -0.174684 -0.297965
0.584019 0.0233493 0.215934
-0.712554 0.0971686 0.139147
-0.590775 0.0436502 0.0136434
-0.47764 0.0835925 0.0337062
0.440814 -0.191718 -0.383258
0.343528 -0.341208 -0.0230326
0.263006 -0.64968 -0.143989
0.363248 -0.626133 -0.0552919
-0.529201 0.754777 0.0438497
-0.350752 -0.0807449 0.192243
0.317959 -0.454542 -0.361595
-0.31463 -0.241519 0.103303
0.403735 -0.597052 -0.27717
-0.50117 -0.622737 -0.0299527
-0.321442 0.913529 0.210967
-0.414304 0.837547 -0.114685
-0.530892 0.547572 0.0777167
0.286377 0.00152341 -0.261962
-0.606049 -0.237327 0.234825
0.526313 -0.271595 -0.0194486
-0.639467 0.661144 -0.117939
-0.0501811 -0.619802 0.0602697
-0.307553 -0.463612 -0.350775
0.552793 0.465479 0.0494449
-0.725328 0.545033 0.222182
0.379943 -0.475745 0.197957
-0.717258 -0.0461378 0.154694
-0.232206 -0.611679 -0.0805086
0.0915315 -0.560245 -0.00164798
0.293912 -0.113594 0.226268
0.403917 -0.0504062 0.183366
-0.012999 -0.597992 0.44238
0.617112 0.568152 0.124935
0.70098 0.31212 -0.0689337
-0.191254 -0.499715 0.0396869
0.0138314 0.707121 0.104345
-0.483121 0.792459 0.113626
-0.499838 -0.577405 0.150759
-0.436663 0.615363 0.0724283
-0.728942 -0.158563 -0.201526
-0.550528 -0.0136783 -0.0737718
0.555289 -0.336325 -0.0338863
-0.0331515 0.70859 -0.0251663
0.632433 -0.17726 0.0110904
-0.312905 -0.170425 0.13777
0.0433563 0.950502 0.271543
-0.00977461 -0.647391 0.251731
-0.508163 0.77216 -0.0744691
0.39025 -0.16729 -0.310308
0.662855 0.168659 -0.0805893
-0.74281 0.50863 0.111713
-0.471031 -0.00461964 0.157733
0.539999 0.0352928 -0.157065
0.372187 -0.542606 0.250335
0.604411 0.517801 0.0989858
-0.280367 0.898078 0.105463
0.285102 -0.649587 0.0153528
-0.721429 0.0573877 -0.00745236
0.224533 -0.64317 -0.0509149
-0.455183 -0.455766 -0.374392
0.558497 0.0102086 0.0537341
0.317124 -0.575615 0.243817
0.1721 -0.458517 -0.149421
-0.183602 -0.68829 0.207587
0.643152 0.0590591 0.11265
0.310211 -0.432746 -0.0358616
0.609289 -0.224981 0.0142361
-0.285442 -0.433304 0.041203
0.300191 -0.380317 -0.383171
-0.438167 -0.500444 -0.337515
-0.263619 0.680793 0.167209
0.0920694 -0.68829 0.263562
-0.45609 -0.227594 0.0692905
0.26926 -0.466648 -0.356958
-0.0827173 0.933127 0.208971
-0.578221 0.705977 0.125185
0.295662 -0.0126643 0.00253272
0.331464 0.828167 0.0751517
-0.183286 -0.521608 -0.0762671
-0.696179 0.59819 0.158291
-0.436639 -0.36711 0.226851
-0.758668 0.320979 0.20224
0.590875 -0.262949 -0.257418
0.628336 0.185776 0.0804779
0.251041 0.903195 0.135324
0.525881 -0.396961 -0.263748
0.392256 -0.563063 -0.113458
0.620527 0.479505 -0.0578828
0.374807 -0.209718 -0.204678
-0.685763 0.552038 -0.0157769
-0.335085 0.659043 0.108087
-0.751306 0.216055 -0.0261724
0.386656 -0.457637 0.284813
-0.287825 -0.540686 -0.290416
-0.0450481 -0.68829 0.396685
-0.637868 0.0916073 -0.0499935
-0.74679 0.117462 0.215324
-0.220089 -0.536101 0.11463
0.470608 -0.392709 0.0425707
0.399344 -0.382739 -0.351313
0.449158 0.0662571 0.0121204
0.63816 -0.0284169 -0.00136608
-0.194751 -0.57289 -0.177325
0.251998 -0.437103 0.217452
-0.536834 0.0407316 0.0750331
-0.651574 0.0361335 -0.247185
0.359048 -0.578069 -0.245647
0.208602 -0.627559 -0.147961
0.129979 -0.662574 0.345749
-0.280949 0.667979 -0.0122178
0.454048 -0.132421 0.21487
0.403685 -0.130378 -0.149246
-0.698463 -0.197438 0.158961
-0.596732 -0.431171 0.0275871
0.567296 -0.311567 0.0144433
0.487922 -0.100079 0.194899
0.434339 -0.0917062 -0.322793
0.589212 0.403367 -0.0743018
-0.598407 -0.427717 -0.0269245
0.323765 0.832858 0.144793
0.0422277 -0.68829 0.322943
0.666812 0.275633 0.230341
-0.459013 -0.265114 -0.0837719
-0.525139 -0.00156256 -0.285109
-0.385264 -0.422185 -0.105127
-0.538117 -0.131336 -0.367323
0.385066 -0.0467355 -0.060383
-0.581141 -0.46332 -0.0942241
-0.217197 -0.4299 -0.292372
-0.437492 -0.549296 0.176076
-0.669645 0.0179862 0.111547
0.269522 -0.0455501 0.100809
0.416264 0.80559 0.168982
0.641753 0.03191 0.0484348
-0.444489 0.611129 0.229218
0.662191 0.509392 0.104643
0.658389 0.340187 -0.0322696
0.224946 0.905087 0.217407
-0.365224 -0.522795 -0.0557073
-0.338712 -0.096876 0.131677
0.31893 -0.36324 0.194925
0.142977 -0.60711 0.288738
0.554079 -0.211226 -0.110213
0.370277 -0.267717 -0.13383
-0.390665 -0.452897 0.0352582
0.586884 -0.270081 0.153934
0.626469 0.0540865 0.00385059
-0.347841 -0.525005 0.0502099
0.612198 0.0700971 -0.079132
0.379398 -0.591019 -0.0234102
-0.72418 0.293352 -0.0282144
0.54643 -0.354591 -0.175428
-0.473423 0.824466 0.226867
-0.527823 -0.573255 -0.165981
0.176125 -0.303169 -0.341448
-0.592929 -0.439013 -0.281925
-0.514364 -0.113039 -0.173419
0.662652 -0.0422231 -0.231855
-0.735579 0.0307734 -0.20448
0.26489 -0.625082 -0.212215
-0.618785 0.477643 0.16675
0.517754 0.661358 0.173696
-0.496752 -0.459766 -0.299565
0.667734 -0.104471 0.00316426
-0.253123 -0.466471 -0.0378001
-0.404778 0.0795284 -0.00240503
-0.392791 0.636223 -0.0157072
-0.694836 0.0698919 -0.131665
0.133312 -0.642534 0.421195
0.420457 -0.389618 0.236593
0.680198 0.456013 0.0128097
-0.642706 0.103575 0.178777
-0.749254 0.375784 0.248939
-0.680028 0.39524 0.0128296
-0.0357932 -0.597992 0.281437
-0.351418 -0.543183 -0.301897
-0.702149 -0.0470981 -0.267258
-0.276312 -0.62463 -0.117546
-0.421443 -0.368337 -0.28498
0.101775 0.941592 0.128928
-0.480053 0.0843785 -0.180594
-0.515882 0.558899 0.150883
0.595538 -0.121085 0.0431853
0.564421 0.450596 0.125384
0.373425 -0.169164 0.231444
0.616037 0.491799 0.0226732
0.135576 -0.426699 0.0740998
-0.40172 0.075782 -0.130769
0.676108 0.0764743 0.206401
0.592303 0.0246951 -0.0353128
0.604034 -0.00499219 0.082771
0.258014 -0.0750989 -0.301017
-0.774409 0.418805 0.0262025
-0.49597 -0.587256 -0.279052
0.360772 0.607999 -0.0789905
-0.468704 0.589514 -0.0788331
0.627 0.329521 0.0587705
-0.497429 -0.159568 -0.254746
-0.0425608 0.708636 0.0718585
0.279731 -0.110156 -0.235129
0.365164 0.83278 0.00920571
0.14505 -0.385464 -0.313868
0.180288 0.921151 0.0721882
0.201335 0.891621 0.139433
0.443427 -0.451808 -0.144565
-0.356578 0.651091 0.230835
0.417572 -0.508022 -0.208999
-0.34551 -0.0759008 -0.280883
-0.452798 -0.236637 0.125919
-0.673539 -0.272798 -0.22627
-0.693885 0.0810893 0.198304
0.441928 -0.455067 -0.0505892
0.317445 0.0817806 -0.120744
-0.47799 0.592419 -0.00922744
0.299759 0.00791749 -0.0638914
0.471639 0.53405 -0.0283619
-0.802629 0.265711 0.0753778
0.134621 0.934664 0.236138
0.544795 0.665618 -0.0636115
-0.400769 -0.139135 0.231543
-0.423001 0.865408 0.0809819
-0.377751 -0.442827 -0.174721
0.103999 -0.49825 0.00875348
0.33626 -0.554604 0.116298
0.502604 -0.0302467 0.138564
-0.402711 -0.0359894 -0.154751
-0.372703 -0.0714531 -0.357793
-0.436928 -0.609819 -0.271941
0.384371 0.593466 0.183219
0.701864 0.377618 0.0639922
0.428245 -0.108451 0.018361
-0.552196 0.0364562 -0.0848218
0.685352 0.354668 0.0132639
0.316937 0.627357 -0.0342887
-0.0330061 -0.654401 -0.0731772
0.572411 0.428828 0.176186
0.364458 -0.238153 0.149965
0.594552 0.114454 0.211219
0.695161 0.291318 0.135125
0.672451 0.193106 0.151542
0.546833 -0.226981 -0.217777
-0.404713 -0.4143 0.194299
-0.0655323 -0.656621 0.0864945
0.526056 -0.384217 -0.319723
-0.699104 0.0295362 0.21894
0.521244 0.693707 0.270952
-0.0305546 0.956704 -0.0852232
0.333928 -0.367586 0.0746118
-0.217473 -0.682064 0.424616
-0.332661 -0.473564 -0.163352
-0.602078 -0.420149 -0.208485
0.258516 -0.574777 -0.213111
0.395593 -0.535618 -0.347235
-0.655598 0.604698 -0.0559633
0.455778 -0.266973 0.236908
0.390953 -0.565896 0.0818446
0.37603 -0.628611 0.112448
0.262419 -0.545153 0.153406
-0.193765 -0.597992 0.244035
-0.368631 -0.258377 0.0966927
0.311788 -0.0102118 0.171226
-0.639616 0.0831512 0.00830224
-0.319486 -0.147402 -0.30601
0.00661152 -0.612174 0.534544
0.500863 -0.412166 0.194746
0.263608 -0.515236 -0.0221162
0.510052 -0.376048 -0.375
-0.187608 0.951839 0.0166527
0.29724 0.032674 0.0325746
-0.385865 0.034973 -0.216236
-0.681937 -0.147011 -0.351961
0.4363 -0.0863202 -0.143185
-0.135016 0.928271 0.210473
0.679773 0.270915 0.0507219
0.403747 0.805025 -0.0211739
-0.46193 -0.211547 0.181318
0.537465 -0.373076 0.0585773
0.370401 0.802313 0.0868262
0.00608557 -0.597992 0.217911
0.467695 -6.14087e-05 -0.0224927
-0.446321 -0.299984 -0.0200702
0.678924 0.271224 -0.00988288
0.152411 0.688457 -0.0212934
-0.111385 -0.68829 0.287237
0.0913154 0.69566 0.232595
0.645187 0.402395 0.116167
0.162321 -0.387734 0.207293
0.584021 0.0257928 -0.246789
0.619412 0.0597584 -0.141793
0.357025 -0.579482 0.287442
-0.631263 0.452145 -0.0389048
-0.328896 -0.232129 -0.385819
0.396661 -0.553485 -0.164014
-0.352213 0.86985 0.0618196
0.516155 -0.417015 0.00753722
0.234965 -0.593931 -0.12027
0.252531 -0.218183 0.0978343
-0.601068 -0.303654 0.236906
0.27692 -0.276973 -0.388003
0.255449 -0.47031 -0.177886
0.149617 -0.55254 -0.26012
-0.577466 -0.00601819 0.120011
-0.413488 0.0505991 0.105725
0.424596 -0.492749 -0.314074
0.538856 -0.0640988 0.157586
-0.440454 0.822143 -0.0630437
-0.257872 -0.465906 0.188349
-0.752654 0.0758716 0.150108
0.610314 0.57973 -0.0324878
0.62721 0.530037 0.197092
0.332177 -0.50029 0.279641
-0.584687 0.034726 -0.186845
-0.711739 0.495993 0.0217807
0.235289 0.658728 -0.0328892
0.145419 -0.487556 0.166277
-0.491204 -0.176669 -0.00873336
-0.475427 -0.63719 -0.184623
0.298636 -0.464549 0.0264455
0.25141 -0.548751 0.0636933
-0.195831 -0.487706 -0.161085
0.437881 0.787454 0.0949674
-0.760862 0.170324 0.149567
0.685685 -0.00933526 -0.0694059
-0.764049 0.426661 0.128159
-0.188971 0.688236 0.193161
-0.383147 -0.0323555 0.184202
0.53807 0.633714 0.105035
-0.749208 0.470353 0.240557
0.656539 0.0076834 0.143658
0.251127 -0.479631 0.011449
-0.194898 0.942347 -0.0626333
0.420128 -0.0852015 0.157344
0.228393 -0.163124 -0.286604
-0.378134 -0.441775 -0.23285
0.374965 0.598525 0.0705217
-0.209863 0.917025 0.108241
0.559426 -0.28536 -0.35225
0.0533533 0.927853 0.00878436
0.656626 -0.127374 -0.117587
0.119016 -0.658797 0.206538
-0.0655711 0.707916 0.171787
0.384327 0.0811341 -0.187582
0.410184 -0.629468 -0.0571098
0.356393 -0.260313 -0.283781
0.376969 -0.282686 0.224948
0.513928 -0.298522 -0.330662
-0.368484 -0.627531 0.0606323
0.346623 -0.211609 0.0965423
0.194416 0.925038 0.0116721
0.405545 -0.125268 -0.0607297
-0.776122 0.412878 0.172272
-0.544852 -0.0725847 -0.327967
0.611849 0.0800912 0.180189
-0.338933 -0.478985 0.00696445
0.31528 0.0780501 -0.0276994
0.133074 -0.687369 0.297519
-0.57924 -0.467239 0.129419
0.60781 -0.174478 -0.335828
0.373239 -0.60441 -0.106351
-0.676695 0.629232 0.116553
-0.35491 -0.505581 -0.100657
-0.605418 -0.382857 0.188284
-0.0546118 -0.682891 0.12269
0.646806 0.122646 0.12954
-0.769741 0.194719 0.20018
-0.210996 -0.598914 -0.0203411
0.632323 0.447199 0.0863679
-0.160936 -0.654225 0.505213
-0.482326 -0.642135 -0.0722508
0.594692 -0.122924 0.154311
0.0997684 0.697975 0.0399917
-0.630447 -0.144379 0.208431
-0.254353 0.905846 0.0389209
-0.417532 -0.66631 0.000533517
0.293516 0.0145008 -0.146926
-0.40439 -0.415187 -0.340479
-0.482706 -0.394898 -0.344249
-0.141738 -0.637805 0.138467
-0.745407 0.390953 0.204302
-0.641959 -0.337915 0.00146787
0.235837 -0.24961 -0.24961
0.200413 -0.347641 0.0932461
-0.565628 -0.495306 -0.247354
-0.480968 -0.0513415 -0.0336363
-0.758484 0.322056 0.10169
0.373057 -0.604806 0.039674
0.662191 0.537568 0.0587755
-0.66086 0.596417 0.269986
0.36537 -0.235647 -0.166904
0.0776616 0.954634 0.225285
-0.241218 -0.639003 0.294787
-0.205169 0.693499 0.0985923
-0.696576 0.597513 0.0035657
0.480726 -0.490068 -0.0997805
-0.456805 0.84511 0.03659
-0.327393 -0.148687 -0.360937
-0.433307 -0.33574 -0.333336
-0.443628 -0.0375114 -0.33916
0.348409 -0.305021 -0.210595
-0.262792 0.903326 -0.0855788
0.0529559 -0.68829 0.440972
0.342101 0.616067 0.105717
0.324184 -0.394358 -0.103386
0.375165 -0.213745 0.223682
-0.471687 -0.230292 -0.267924
0.665901 -0.0500814 0.0857683
0.552896 -0.213796 0.189518
-0.567654 0.758517 0.0685474
0.453074 -0.0215526 0.141851
-0.552979 0.530812 -0.0278319
-0.316122 -0.571363 0.115126
-0.6071 0.718679 0.208133
0.111976 0.917403 -0.00686066
0.43039 0.783622 0.0417678
-0.537411 -0.497769 -0.365831
-0.454418 0.812428 0.156637
-0.493227 -0.171111 -0.319769
0.339825 -0.625797 -0.14055
-0.59867 0.716159 0.0206053
0.488876 -0.352991 0.0313743
0.307763 -0.45477 0.198862
0.3783 0.0488599 -0.249846
-0.619302 0.704199 0.156123
-0.729685 -0.15703 -0.0196349
