ply
format ascii 1.0
comment Created by Open3D
element vertex 1644
property double x
property double y
property double z
end_header
-0.346963 -0.00942088 0.187791
-0.432791 -0.482813 -0.0837238
-0.428239 0.705632 0.0102697
-0.678376 -0.0694257 -0.0828349
-0.415989 0.143621 -0.0835184
-0.348796 -0.406609 0.185067
-0.448492 -0.0972533 -0.190551
0.412265 -0.310147 0.143545
0.193783 0.925976 0.0149651
-0.356565 -0.387411 -0.110555
-0.346963 -0.00207065 -0.138426
0.388609 -0.136639 -0.203812
-0.617786 -0.22501 0.258614
-0.450308 0.268333 0.0411848
-0.492339 0.0938883 -0.03477
-0.559336 -0.343256 -0.638252
-0.538648 -0.277068 -0.448153
0.480953 0.259979 0.034438
0.648002 -0.176419 0.18592
0.646671 -0.0517277 0.200991
0.481563 0.436793 -0.0023191
0.450592 -0.0520428 -0.108928
-0.501457 -0.379768 0.0206195
-0.453777 0.470718 0.0491177
-0.355738 0.736908 0.0364963
-0.617786 -0.359038 0.0187212
-0.50057 -0.00356302 -0.197189
-0.446536 -0.0182477 0.14585
-0.617786 0.0848561 -0.0969191
0.377206 -0.180312 -0.135916
0.544948 -0.0912157 -0.203812
0.608143 -0.484011 -0.00918834
-0.503199 -0.109481 0.0608335
0.709898 -0.298446 -0.178085
0.70666 0.00487662 -0.113154
-0.429916 -0.176523 0.161716
-0.480266 0.227832 0.115255
0.645954 -0.0623777 -0.172999
-0.417822 -0.278416 -0.190551
-0.538827 0.0931565 0.197002
0.570911 0.0923249 0.12061
0.0704682 0.947093 0.0104781
-0.49263 -0.293895 -0.0254474
-0.419066 -0.043691 -0.0956687
0.565316 -0.143702 0.251501
-0.53253 -0.460732 -0.0280133
-0.347298 0.0938883 0.170859
0.450927 -0.382373 -0.0740881
0.562716 0.0542838 -0.181928
0.416378 0.0757784 -0.153287
0.647103 -0.268967 0.189919
-0.553345 -0.113374 0.264762
0.71027 -0.333229 -0.0522764
0.440199 0.104559 0.107933
0.472901 -0.311321 -0.108928
-0.409901 0.0103187 0.264762
0.709548 -0.265629 0.0849751
-0.346963 -0.223709 0.263778
-0.513978 -0.367522 0.21952
-0.629843 -0.143302 -0.182976
0.532839 -0.122978 0.0718993
-0.490507 0.218589 -0.0293645
-0.560126 0.106327 0.0494772
-0.434608 -0.416237 0.174836
-0.515582 -0.284095 -0.752393
-0.452136 0.0910893 0.207123
0.53165 -0.0117696 -0.0313368
0.29617 0.872959 -0.00865994
-0.371293 -0.0997699 -0.190551
-0.480282 0.336906 0.0816387
0.3797 -0.413828 -0.110389
0.535471 -0.369529 0.0430041
-0.604379 -0.0638336 -0.159739
0.447346 -0.167943 0.251501
0.594592 0.0925787 0.0355195
-0.660771 -0.00428105 -0.182976
0.465248 -0.295773 0.250849
-0.346963 -0.151971 0.211376
-0.678376 -0.192334 0.176614
-0.549244 -0.27704 -0.366319
-0.560126 0.261657 0.0412272
-0.541901 -0.346271 -0.321102
0.554213 0.0500892 0.242448
-0.437514 0.288629 -0.0293645
-0.469466 -0.476714 0.0862729
-0.59277 -0.284982 0.22019
0.475404 0.286163 -0.0426249
0.628712 -0.398599 -0.105794
-0.528027 -0.0338262 0.264762
0.514287 0.245708 0.101995
-0.503199 -0.156613 -0.0456057
-0.560126 0.216801 0.105156
0.553629 -0.396087 0.183584
0.0534664 0.927103 0.0794481
0.54743 -0.276195 0.251501
-0.57024 -0.455215 0.124261
0.626492 -0.392695 0.0941278
0.441233 0.63907 0.027788
0.474066 -0.271224 0.147914
-0.508238 -0.15767 -0.190551
-0.587649 -0.43747 -0.1209
-0.500368 -0.0839682 -0.0956687
-0.677011 0.0300335 -0.0900459
0.194083 0.892708 0.0790639
0.380159 -0.456863 0.112881
-0.560126 0.197689 -0.0426437
0.707606 -0.083739 -0.0415009
0.560206 -0.437965 -0.195083
0.375083 0.0184363 0.0152091
0.578885 -0.481795 0.0656286
-0.678376 0.0349205 0.166955
0.377275 -0.186743 0.195682
-0.617786 0.012299 0.202473
-0.0531772 0.953071 -0.0182956
-0.466343 -0.188426 0.264762
-0.678376 -0.261014 0.125097
0.649861 0.0381621 0.0257929
-0.498965 -0.343141 0.102149
-0.503199 -0.0137745 -0.000780314
0.531663 -0.0129271 0.0910591
0.380412 -0.480494 0.00890971
-0.362033 0.0632084 -0.161484
-0.517117 -0.342844 -0.694075
-0.53533 -0.345017 -0.25007
-0.422468 0.0938883 -0.0323235
0.364678 0.820534 0.0126964
0.444124 -0.445871 -0.190581
-0.393651 -0.482813 0.0518417
0.514313 -0.336364 -0.203812
0.458768 0.0911278 -0.0859135
0.665577 0.038329 -0.0685818
-0.678376 -0.13317 -0.0455059
0.37484 0.0412574 0.108414
-0.442444 0.55264 0.0356805
-0.501897 -0.405278 -0.195524
-0.350394 -0.250769 -0.190551
-0.678376 -0.0929076 0.188725
0.378753 -0.325256 -0.193078
-0.346963 -0.452851 -0.0664998
-0.346963 -0.157583 -0.143902
0.488651 -0.0267061 0.251501
-0.678376 -0.1483 0.02643
0.710253 -0.3316 0.0436846
-0.49263 -0.14837 0.115217
-0.47727 0.162008 0.17919
-0.489114 0.400847 0.0267776
-0.678376 -0.26738 0.0178985
0.645622 0.0465434 0.166957
0.585945 0.2351 0.0139024
-0.5415 0.151271 0.0960942
-0.503199 -0.278447 0.127906
-0.413719 0.637787 0.0173217
-0.559737 -0.342647 -0.5649
-0.617786 -0.402905 -0.0462092
-0.346963 0.0411754 -0.0356441
0.480308 -0.205352 -0.108928
0.479334 -0.463918 0.101484
0.379603 -0.404746 0.1574
-0.678376 -0.319111 -0.100773
-0.438554 0.0938883 0.129564
0.650742 -0.433013 -0.0198463
-0.552553 0.114296 -0.0835184
0.532378 -0.079901 -0.0385992
0.441961 0.115493 0.173213
-0.617786 -0.432999 0.0237001
0.444158 0.0909718 0.0393991
0.434173 -0.0120827 -0.211171
0.707268 -0.0521129 0.106787
0.398309 0.719103 0.0599357
0.509753 0.561596 0.0179331
-0.412995 0.169916 0.023145
0.376482 -0.112451 0.186089
0.474937 0.386977 0.0432865
-0.434967 -0.368191 -0.0844418
-0.377266 -0.290384 0.167783
0.708298 -0.148549 0.108656
0.131397 0.907005 0.0153878
0.580966 -0.47731 -0.146267
-0.527706 -0.457407 -0.1634
-0.298695 0.851378 0.0446307
-0.128295 0.940919 0.0118411
0.541256 -0.159016 -0.203812
-0.678376 -0.255892 -0.0791292
0.649938 -0.357681 -0.054952
-0.39061 0.757962 0.0861198
0.646286 -0.0157597 -0.12886
0.472936 -0.187303 0.148456
-0.413388 -0.00915718 0.0392845
-0.618682 -0.276605 -0.182976
0.501238 0.213073 -0.0426249
0.512349 -0.101518 0.148456
0.484847 -0.485327 -0.0754856
0.378117 -0.265662 0.175901
0.628124 -0.451304 0.118599
-0.225365 0.902033 0.0275895
-0.678376 -0.0278409 -0.0302919
0.663039 -0.169052 -0.182634
-0.503199 -0.230525 0.0770559
-0.42495 0.670668 -0.0417607
-0.678376 -0.131145 -0.135115
-0.346963 0.0443162 0.0439848
0.568363 0.137117 -0.0134857
0.521706 -0.0232433 -0.211964
-0.346963 -0.398127 0.11785
0.53359 -0.193443 -0.0421676
0.464937 0.324223 0.0194906
-0.170358 0.918708 -0.0493292
0.709141 -0.227482 -0.0338425
-0.622053 -0.335408 -0.0420165
0.534899 -0.315969 -0.104887
0.518661 0.487616 0.00365432
0.433226 -0.3588 0.0735497
-0.500732 -0.306085 -0.0956687
-0.479282 0.0911999 -0.107113
-0.503199 -0.241639 0.00641584
-0.450739 -0.302206 0.259687
-0.347415 -0.340998 -0.190551
0.433447 -0.387174 0.19274
-0.678376 -0.0211554 -0.1247
0.380121 -0.45332 -0.182282
0.490659 -0.0115829 0.0203222
-0.617786 0.0452348 -0.0426081
-0.503199 -0.0319279 0.118302
-0.500247 0.0938883 0.0551642
0.708557 -0.172845 0.19549
-0.5415 0.147723 -0.0122235
0.620342 -0.342008 0.16095
0.378055 -0.259884 -0.144982
-0.545241 -0.410765 0.180652
-0.433709 -0.23763 0.161716
0.446988 0.717764 0.00398717
-0.617786 -0.214128 -0.122257
0.663617 -0.22309 -0.136995
-0.533039 -0.278695 -0.508996
0.707229 -0.0485247 0.193479
0.181913 0.927484 -0.0506003
0.400116 -0.399779 0.0330523
-0.347378 -0.396365 -0.012258
0.438853 0.230631 0.098035
-0.353649 -0.0414283 -0.190551
-0.494844 -0.255081 0.264762
-0.39678 -0.482813 -0.0345547
-0.338912 0.818205 -0.0395108
0.583791 -0.085588 0.251501
0.479479 -0.0117024 -0.0738738
-0.678376 -0.00364894 0.0432776
-0.442136 -0.115162 0.161716
-0.570355 0.0938883 0.130709
-0.652044 0.0388841 0.112677
0.492388 -0.0953402 -0.108928
0.614922 0.0302163 -0.198996
-0.529825 -0.481235 0.0769226
0.43688 -0.0475785 0.147906
-0.405144 -0.0748243 0.264762
-0.499495 -0.293608 -0.190551
-0.587649 -0.369228 -0.161584
-0.407538 -0.364027 -0.190551
0.06111 0.937847 -0.0576582
0.531957 -0.236891 0.148456
0.23985 0.863962 0.00728993
0.0106026 0.922425 0.0262443
-0.617731 -0.115134 0.263836
0.643977 0.0899475 -0.0925457
0.620206 -0.39588 -0.167893
-0.595654 0.0845015 0.223382
0.48431 -0.242189 -0.203812
-0.402955 -0.337607 0.108031
0.52416 -0.300171 -0.0460482
-0.596125 0.0544438 -0.153983
0.543985 0.29391 0.086741
0.605367 -0.09111 -0.203812
0.549798 0.199827 0.110952
-0.617786 -0.325348 0.0700771
0.378595 -0.310394 0.241015
0.37496 0.0300424 0.165233
-0.43995 -0.194317 -0.0956687
-0.472962 0.286833 0.115255
-0.567545 -0.297733 -0.711363
-0.368479 0.00730135 -0.0856409
0.708202 -0.139583 -0.101858
0.708284 -0.147287 0.0155765
-0.461535 -0.379768 -0.0243214
-0.678376 -0.0907881 0.0778638
0.538885 0.149475 0.170119
-0.572505 -0.343679 0.236284
-0.489961 0.0485583 -0.175083
0.649003 -0.270178 0.128409
0.439631 0.157703 0.130082
-0.477168 0.390139 -0.0306
0.500761 -0.413847 0.166603
0.647664 -0.0841954 -0.119802
-0.468958 -0.0180798 0.264762
0.380231 -0.463612 -0.0592296
0.391772 0.0904127 -0.0212379
0.528203 0.174817 -0.0883807
-0.573752 -0.152431 -0.190551
0.707324 -0.0573545 -0.167023
0.391463 0.729451 -0.0509421
0.440898 -0.341492 0.226349
0.375215 0.00618726 -0.0406565
0.709978 -0.305951 -0.103098
0.598148 -0.220833 -0.203812
0.378518 0.801986 -0.0507277
-0.346963 -0.0910113 0.209546
0.469316 0.558193 -0.0248656
0.37776 -0.0422718 -0.203812
-0.452277 0.493859 -0.026914
-0.678376 -0.353114 0.00221529
-0.388191 -0.0361986 0.158942
-0.496094 0.464953 0.0923391
-0.412995 0.132161 0.0731448
0.708641 -0.180677 -0.143083
0.534881 -0.314326 0.059271
0.675387 0.0384347 0.119169
0.563903 -0.213126 0.251501
-0.346963 -0.128076 0.26293
0.554218 -0.462505 -0.0235293
0.520568 0.486509 0.0841247
0.646003 -0.312051 -0.172356
-0.446055 0.383595 0.0735369
-0.550584 -0.256442 -0.190551
0.663295 -0.113043 0.196618
-0.678376 -0.179274 -0.0989428
-0.498902 0.295749 0.0316745
0.532708 -0.110813 0.0167202
-0.393362 -0.443325 -0.176969
-0.402853 0.0921056 -0.102562
0.532877 -0.185045 -0.108928
-0.678376 -0.0688815 0.132026
0.3747 0.0543213 -0.120622
0.522938 -0.185742 0.0725936
0.369614 0.755306 0.0260112
-0.601231 -0.168834 0.263836
-0.382753 -0.126437 -0.0986554
-0.346963 -0.350967 0.191729
-0.503199 -0.052266 0.0398455
0.448829 -0.373157 -0.203812
0.376626 -0.126003 -0.150378
0.375345 -0.00601639 0.223633
0.263865 0.846188 -0.0452343
0.434073 -0.113913 0.251501
-0.418632 0.197947 0.139055
-0.363373 0.791849 0.0332044
0.556072 -0.328058 0.233693
0.613634 -0.171015 0.251501
-0.471538 0.603219 0.00301826
-0.617786 -0.0770565 -0.107537
0.482293 0.0913787 -0.00498976
-0.41816 0.632724 0.0918907
0.49645 0.382758 0.094832
0.411097 -0.0024025 0.129145
-0.533719 0.066921 0.245372
-0.626305 -0.0578759 0.21064
0.524548 -0.336522 -0.00445049
0.532308 -0.073327 0.0960646
0.438919 0.22438 0.0340133
-0.426568 -0.223175 -0.190551
-0.210979 0.872054 -0.0515515
0.54259 0.249463 -0.0426249
0.485751 -0.382267 -0.0274671
0.600489 0.0926409 -0.057759
-0.243066 0.842405 0.00575707
-0.414361 -0.00915718 0.0939984
-0.596125 -0.41787 0.154714
-0.476662 -0.482813 -0.0418486
-0.346963 -0.00463464 0.242196
0.382576 -0.199102 0.251501
-0.431928 -0.45308 0.127577
0.646262 -0.0134358 0.1622
0.64987 -0.22285 0.155306
-0.617786 -0.314749 -0.141113
0.375983 -0.0657398 0.213959
0.628699 -0.0384198 0.250576
-0.445722 -0.15157 -0.190551
-0.455202 0.179587 -0.0732782
0.454488 -0.227242 0.251501
-0.430926 0.313206 0.0668829
-0.534109 0.0938883 -0.000397099
0.44129 0.634605 -0.0373745
0.42005 0.0140787 0.251392
-0.346963 0.0558009 0.132508
0.408316 0.0784965 0.214757
-0.492729 0.481589 0.0133068
-0.229016 0.897093 0.0837997
-0.662471 -0.243807 -0.182976
0.562626 0.0849262 -0.136566
-0.346963 -0.451104 0.061913
0.556363 -0.386878 -0.211655
0.538982 0.0919841 0.024429
0.652147 -0.00423167 -0.181204
0.477144 -0.122163 -0.203812
-0.521521 -0.472329 0.0246255
0.412024 -0.08927 -0.110865
-0.5578 -0.29264 -0.620819
-0.412995 0.156383 -0.0316193
-0.346963 -0.241576 -0.13796
-0.580365 -0.482813 -0.0189979
-0.406137 0.722709 -0.0428284
0.491358 0.294962 0.0967817
-0.480049 -0.0523638 -0.190551
0.482001 0.199775 0.101995
0.427936 -0.205337 -0.203812
-0.503199 -0.138706 -0.0956272
0.489231 0.542375 0.088985
0.460834 0.590214 0.0210689
0.707189 -0.361369 -0.000124502
-0.186561 0.875571 0.0521736
0.303042 0.868008 0.0770431
-0.114208 0.938679 0.0816506
-0.49263 -0.137606 0.00867859
0.608242 -0.275805 0.251501
-0.449972 -0.395282 -0.197512
0.517998 0.437632 -0.0406031
0.532703 0.114825 -0.0967788
-0.382753 -0.341578 -0.109885
-0.397337 0.0938123 0.187631
-0.560126 0.24408 -0.00846537
-0.617786 -0.211816 0.20767
0.483591 0.453275 0.0523049
0.52405 -0.289835 0.120249
-0.407338 0.0323506 -0.185224
-0.412995 0.231494 0.0438475
0.505242 -0.45051 -0.18594
0.438256 0.286486 -0.00512211
-0.617786 0.091276 0.0259421
-0.346963 -0.426091 -0.152691
0.185669 0.884734 -0.0179559
0.345808 0.805049 0.080977
-0.346963 0.0426313 0.191332
0.433194 -0.382828 -0.0250345
0.467225 0.06989 -0.163197
-0.678376 -0.271949 -0.128726
-0.571066 -0.247252 0.264762
0.702133 0.0387201 -0.0022233
-0.448854 -0.00915718 -0.0331709
0.51749 0.404963 0.0193257
-0.49263 -0.0528349 -0.0547406
-0.419379 0.0595599 0.251055
-0.470593 -0.475204 -0.134832
-0.335888 0.763249 0.0766243
-0.559252 -0.330134 -0.44774
0.649067 -0.276129 -0.12535
0.439486 0.17131 0.00633782
0.450934 -0.48569 0.0187627
-0.489637 -0.401969 0.18964
-0.453017 0.430539 0.00493138
0.590331 -0.286347 -0.203812
0.707103 -0.0366588 -0.0652267
-0.3943 -0.200069 0.264762
-0.49263 -0.20583 -0.0344302
0.67495 -0.128041 -0.153912
0.444218 0.637649 0.0791192
0.481557 -0.0116797 0.102475
0.459078 -0.312221 0.120824
-0.429926 -0.244702 -0.0956687
-0.394696 -0.30293 0.259337
-0.402601 -0.387694 0.203021
-0.495791 -0.146466 0.264762
-0.0389626 0.917859 -0.052707
0.516563 0.0917451 0.116527
0.707189 -0.0446945 0.0313881
-0.550865 -0.277411 -0.237214
0.621711 -0.373833 0.202167
-0.285373 0.816495 0.0850877
-0.526533 -0.360866 -0.190551
-0.347778 0.00744061 0.00257085
0.469183 0.673726 -0.00880118
-0.442439 0.559502 -0.0273407
0.709727 -0.282434 -0.0540611
-0.588171 -0.366908 0.158153
-0.301508 0.847589 -0.0149613
0.564337 0.102152 0.173213
-0.503199 -0.348505 -0.0340539
0.497591 -0.355274 -0.106938
0.392635 0.0904216 0.0988459
0.620709 -0.442975 -0.1281
0.499796 -0.164708 0.251501
-0.550567 -0.0319881 -0.190551
0.606843 -0.484025 -0.102241
0.644433 0.0913026 0.0410682
0.483181 -0.363779 0.0660385
-0.53084 0.0162358 0.264719
0.523514 -0.239672 0.0362662
-0.596125 -0.106831 -0.189004
-0.678376 -0.170406 0.104132
0.512075 0.293569 0.0107507
0.517763 -0.481715 0.0671427
0.375471 -0.0179 -0.152434
0.439526 0.167651 -0.0542784
-0.485344 0.532601 0.0512975
-0.676214 -0.16734 -0.182976
-0.517763 -0.334335 -0.752393
-0.0386387 0.916178 0.0226334
-0.596125 -0.440756 0.070083
-0.43307 0.247824 0.115255
0.412948 -0.175762 0.162814
-0.522151 -0.315806 -0.477588
-0.558944 0.163483 -0.0811894
-0.397768 0.67572 0.0450772
0.378823 -0.331827 0.173103
0.446032 -0.485675 -0.110452
-0.397212 -0.379768 0.0211943
-0.389208 0.758119 0.00673585
0.414168 -0.290045 -0.115501
0.380021 -0.443889 0.0430821
-0.0590983 0.95649 0.0724465
-0.414748 -0.471531 -0.14246
0.587294 -0.435098 0.141233
-0.439403 0.572146 0.0809355
0.357055 0.769511 -0.019546
0.627872 0.0911258 0.136604
-0.375777 0.710405 9.57482e-05
0.0836052 0.9122 -0.022112
-0.522821 -0.332916 -0.606871
-0.560126 0.13149 0.164335
0.679226 -0.263302 -0.162482
-0.451463 -0.0888364 -0.0956687
-0.35832 0.0938883 0.0533864
-0.486994 -0.162798 0.161716
-0.668733 0.0388841 0.0655881
-0.3726 -0.177332 0.178314
-0.617786 0.0402174 0.00604448
-0.49263 -0.0687689 0.0857257
0.583536 0.294333 0.0351708
0.586504 0.182754 0.0098559
0.709179 -0.231119 0.0299402
-0.678376 -0.141049 0.170471
-0.476164 0.341555 -0.0271234
0.226946 0.910573 -0.0173159
0.532974 -0.135688 -0.0266977
-0.346963 -0.277256 0.206115
0.379188 -0.365905 -0.166462
-0.369908 -0.295232 -0.190551
-0.451641 0.487727 0.094513
-0.632902 -0.200012 -0.17056
0.650071 -0.370177 -0.138775
0.523544 -0.242435 -0.0209327
-0.350185 0.00667319 -0.195154
-0.174548 0.922411 0.0199775
0.457756 0.0809588 0.211686
-0.522818 -0.33284 -0.527609
0.585988 0.11407 0.0779014
-0.521649 -0.302964 -0.327693
-0.126347 0.898 -0.0101335
0.656769 -0.322207 0.0622527
-0.130783 0.898363 0.057023
0.48748 0.631758 0.0388618
-0.412995 0.275653 0.00993787
0.438327 0.279885 0.0539455
0.431734 -0.012212 -0.0796457
0.0130352 0.961626 -0.00912118
0.576251 0.176198 -0.0877999
0.633067 -0.209353 -0.172999
0.484687 -0.140682 0.148456
0.623661 0.0596577 0.23706
0.423972 -0.256803 -0.203812
0.53404 -0.206273 -0.203812
-0.381168 -0.482813 -0.081224
0.659116 -0.112503 -0.196236
0.423232 0.0322084 -0.197005
0.261931 0.851888 0.0505696
-0.34702 -0.147757 -0.190551
-0.678376 -0.217876 0.0213099
-0.639994 -0.300179 0.105083
-0.562514 -0.479637 -0.121106
-0.255069 0.834719 -0.0441815
-0.444862 -0.131621 0.257122
-0.374474 -0.348106 0.233432
0.405985 -0.0923575 -0.203812
-0.481483 -0.334135 0.242431
0.312247 0.810445 0.00338666
-0.346963 -0.405485 -0.0628316
-0.678376 -0.0202892 0.151067
0.311662 0.856402 -0.0516413
-0.613198 -0.00161533 -0.159613
0.511245 0.361049 0.00256591
0.53345 -0.381757 -0.0154847
0.500446 -0.142688 -0.108928
0.708693 -0.185542 -0.0912321
0.534036 -0.0821104 0.251501
0.561376 -0.333058 -0.203812
-0.489664 0.0938883 0.168442
-0.485401 -0.0422125 0.160696
0.568187 0.153641 0.0964133
-0.351765 0.0938883 -0.0484601
0.153449 0.942133 -0.0065325
-0.551608 -0.193733 -0.190551
0.586324 0.199644 0.0761038
-0.61731 -0.482813 0.065995
-0.604389 0.0920809 0.0985871
-0.617786 -0.0101745 0.26019
-0.519572 0.256714 0.115255
-0.382753 -0.263026 -0.100489
-0.481442 0.264433 -0.0293645
0.510486 -0.306062 0.24564
0.650525 -0.412703 -0.0618795
0.411443 -0.0348583 -0.128058
-0.477399 -0.253879 0.161716
-0.648081 -0.0658445 -0.143687
0.377286 -0.187745 -0.191963
0.0862887 0.957148 0.0660167
-0.648081 -0.166249 -0.13196
-0.678376 -0.263281 -0.033249
0.409479 -0.0808748 0.165053
0.413155 -0.195096 -0.110714
0.648324 -0.483582 -0.0321536
0.579029 0.0924118 -0.00818685
0.418462 0.690717 0.0283668
0.377741 -0.230386 0.21094
0.0414978 0.961129 0.0505232
-0.625018 -0.105502 -0.152999
-0.502462 0.197083 0.1416
0.652386 0.0381887 0.0792189
0.318127 0.85759 0.0288251
0.393417 -0.399852 -0.0661087
0.478898 -0.0117083 -0.0278553
-0.617786 -0.36043 0.110971
0.620228 -0.483882 0.0368114
-0.678376 -0.21658 0.136787
-0.596125 -0.308046 0.180634
-0.51629 0.138787 0.185961
-0.503199 -0.328151 0.0347718
0.549551 0.0166536 -0.204675
-0.484693 -0.184159 -0.0956687
0.471019 -0.484935 0.0615159
0.375004 0.0258695 0.06528
-0.617786 -0.482727 0.0187459
0.151995 0.944756 0.0408253
-0.583388 -0.292828 0.264222
-0.452988 -0.00915718 0.0123369
0.65056 -0.41595 0.0256477
-0.414924 0.726012 0.0488244
0.457797 -0.068206 0.251501
0.425652 0.0907742 -0.0546774
-0.464001 0.136114 -0.0835184
-0.264356 0.876903 0.0290977
-0.556918 0.295749 0.011289
-0.219161 0.903041 -0.0192853
0.472418 0.336245 0.0947283
0.342728 0.835936 -0.0239935
-0.596125 -0.429234 -0.0762402
-0.509814 0.295749 0.0757463
-0.678376 -0.267439 0.0801582
0.521737 -0.0732115 -0.0823104
-0.382753 -0.0215307 -0.118513
0.708539 -0.171155 0.147955
0.523596 0.451343 0.0303481
0.62858 -0.386281 -0.211349
0.392226 -0.341548 0.11782
-0.346963 -0.205679 -0.188651
-0.33638 0.760749 -0.0104792
0.602539 0.0691769 -0.166427
0.419765 0.755091 0.0275846
0.221653 0.872368 0.0495879
0.655703 0.0382243 -0.0190117
-0.39794 0.0938883 0.0220507
-0.346963 -0.348145 -0.136533
-0.568147 -0.0132244 0.264762
-0.0691804 0.91091 -0.018669
0.420605 -0.0123306 0.0323698
-0.523613 -0.0796007 0.264762
-0.503199 -0.154054 0.0666212
0.602157 0.0908374 -0.116019
-0.380438 -0.175256 -0.118754
0.499198 -0.260528 -0.108928
0.706526 0.0173469 -0.0574162
-0.492382 -0.106786 -0.190551
-0.398598 -0.059951 -0.190551
0.506132 -0.292734 -0.210404
-0.382753 -0.367398 0.0812674
-0.557877 -0.294639 -0.546335
-0.452128 0.649051 -0.00285343
-0.522098 -0.314441 -0.417266
-0.543675 0.0406164 -0.18039
0.470457 -0.0857025 0.148456
0.380915 -0.482148 0.0692692
0.475648 0.511545 0.00855217
0.502899 0.0766081 0.219095
-0.338482 0.820244 0.00674079
-0.678376 -0.122614 -0.182975
0.488537 -0.485288 -0.0178571
-0.476472 -0.375444 0.0572956
-0.4492 0.656383 0.0469419
-0.442665 -0.379768 0.0159893
-0.0320944 0.921455 0.0773345
-0.382753 0.00210917 0.133195
-0.446536 0.353112 0.10588
-0.451313 0.427352 0.0826373
-0.412995 0.272768 0.0699408
-0.0173277 0.957829 -0.0438792
0.707828 -0.104587 0.113926
0.676925 -0.047702 -0.130032
-0.42524 -0.476725 0.0862501
0.413355 0.0904513 -0.0997043
-0.482145 0.346077 0.038443
-0.412995 0.14046 0.11655
0.397264 -0.0894853 0.251501
0.648158 -0.190989 0.232577
-0.360914 -0.171276 0.264762
-0.429621 0.600439 0.0471365
0.146246 0.901643 -0.0501421
-0.49263 -0.189946 0.0903786
0.709263 -0.238936 -0.141385
-0.369407 -0.261529 0.264762
-0.571977 -0.454604 -0.166595
-0.495449 0.455171 0.0494723
-0.495115 0.0881273 0.215846
-0.296132 0.814025 -0.0486122
0.584513 0.294059 -0.0426249
-0.447199 0.0155395 -0.192402
0.506511 -0.258248 0.251501
0.522145 0.00155904 0.251501
-0.396199 -0.084865 -0.0956687
-0.0780259 0.951772 0.031876
-0.52168 -0.303773 -0.713255
0.663743 -0.234991 -0.192002
-0.346963 0.034719 -0.111975
0.627455 -0.132808 -0.172999
-0.564491 -0.3081 -0.663535
0.415136 -0.380714 -0.115715
0.650047 -0.367993 0.0670874
-0.346963 -0.375175 0.154853
0.506662 0.318558 -0.0244775
0.266761 0.893032 -0.0336687
0.686039 -0.1428 0.173521
-0.678376 -0.0467034 0.0494624
0.43408 -0.127843 -0.203812
-0.617786 -0.0228887 0.177075
-0.346963 -0.0467745 -0.135429
-0.464929 -0.281619 -0.0956687
0.103548 0.91216 0.0482199
-0.346963 -0.115418 -0.153917
-0.0267185 0.957835 0.0231045
0.458372 -0.475127 -0.154098
0.105183 0.949569 -0.018751
-0.413526 -0.0711492 0.161716
0.432328 0.73588 0.0807222
0.441168 -0.343652 -0.108928
-0.446179 -0.336674 0.109021
0.561002 0.0811652 0.213203
0.479591 0.475604 -0.0211204
-0.354196 -0.0543677 0.178314
-0.509476 0.112569 -0.0835184
-0.394309 -0.482813 0.00848501
0.378293 -0.282174 -0.194229
-0.632902 -0.25111 -0.142244
0.3747 0.0543737 -0.165438
-0.548674 -0.482813 -0.0727923
-0.431885 0.0938883 0.0785345
0.379784 -0.421833 0.0803251
0.170155 0.893323 0.0297861
0.377659 -0.222764 0.168712
-0.400125 -0.436414 0.151049
0.544301 -0.363872 0.210314
-0.678376 -0.0236344 -0.0729661
-0.346963 -0.433387 0.151638
0.546806 0.0920681 0.0778066
-0.396551 0.0938883 0.138066
0.374757 0.0489968 -0.0423405
0.705104 -0.264139 0.127554
0.226049 0.915672 0.0546941
0.439804 0.141551 0.0449004
0.688403 -0.428127 -0.000124502
-0.542172 0.0938883 0.0985131
-0.55763 0.295749 0.0704642
0.477882 0.40386 -0.0348598
-0.55971 -0.341945 -0.696537
0.45322 -0.273477 -0.108928
-0.373922 0.714236 0.0677136
-0.558908 -0.321248 -0.291066
-0.435741 -0.317494 -0.190551
-0.503199 -0.250584 -0.0352352
-0.617786 -0.444913 -0.0394495
-0.382753 -0.235464 0.163151
-0.617786 0.0430925 -0.104632
0.394076 0.721003 -0.00943625
0.426837 0.689931 0.0824002
0.479503 0.417936 0.078248
-0.557938 -0.296231 -0.40313
0.568401 0.133609 -0.0588948
0.708104 -0.17651 -0.196236
0.651082 -0.464866 0.0125493
-0.558872 -0.320311 -0.365182
-0.346963 -0.203373 -0.119044
0.420111 -0.304682 0.246774
-0.346963 -0.203413 0.226676
-0.596125 -0.396092 -0.122042
-0.655829 -0.404738 0.0131359
0.707099 -0.0363102 0.152199
0.522306 -0.126533 0.115975
-0.305772 0.796355 0.0541351
0.692749 0.0386194 0.049017
0.49065 -0.228492 0.148456
0.592248 -0.467973 -0.0552236
0.408184 -0.438381 0.139587
0.678526 -0.0480388 -0.196236
0.619768 -0.305926 0.198826
-0.522296 0.254242 -0.0293645
-0.460788 0.194725 0.146666
0.379685 -0.412428 -0.172658
0.376792 0.812934 0.0521864
-0.382753 -0.000494327 0.0665718
-0.465098 0.0938883 -0.0677463
0.706598 0.010614 0.116064
0.542391 -0.484416 -0.113957
0.444282 0.128919 -0.0967788
0.471865 0.256109 0.101995
0.645889 0.0214527 0.200473
0.513853 0.376963 0.0572067
-0.503199 -0.283939 0.0163765
-0.382753 -0.38476 -0.0691981
0.585766 0.251899 -0.0243945
0.466521 0.329963 -0.0220695
0.590875 -0.41014 -0.207817
0.708724 -0.188439 0.00845044
0.53167 -0.0136313 0.0279391
0.710114 -0.318731 0.00396741
0.57622 -0.484352 0.0177
-0.555601 -0.291438 -0.761602
0.515198 0.522482 0.0540284
0.430448 0.740486 -0.0317684
-0.678376 -0.1442 0.0716958
-0.397131 -0.033922 0.264762
-0.503199 -0.105766 0.10231
0.660905 0.0195909 -0.112436
-0.366169 0.791534 0.080333
-0.478801 0.578584 0.0692583
-0.412995 0.125194 -0.00432111
0.472024 0.545844 0.0451878
0.497165 -0.0115138 0.0612532
0.646952 -0.0780402 0.247745
0.707859 -0.107414 -0.00753005
-0.279419 0.868463 0.077048
-0.460061 -0.282983 -0.197144
0.509463 0.293542 0.0561964
0.585323 0.293341 0.0872141
0.690123 -0.301717 0.090349
0.51358 0.527273 -0.0068051
0.432862 -0.272647 0.147363
0.374626 0.061315 0.00712104
-0.492089 -0.460732 -0.0106698
0.392337 0.791061 0.0206867
-0.571165 0.0903476 -0.111399
-0.521749 -0.305541 -0.244667
0.669415 -0.388259 -0.034689
0.524298 -0.462825 -0.051751
-0.262835 0.828389 0.0389734
-0.521295 -0.293919 -0.639646
0.624878 -0.0395201 -0.199843
0.552757 -0.0488249 -0.203812
-0.413413 -0.118569 -0.190551
-0.678376 -0.116078 -0.0827144
0.467173 0.14762 0.170489
-0.460629 0.508762 0.0290908
0.380154 -0.456415 -0.111046
-0.479137 -0.311123 0.132683
-0.596125 -0.0306736 -0.183786
-0.57807 -0.0689151 -0.190551
0.484606 0.64348 0.0778708
0.467958 0.0912256 -0.0461489
0.536205 0.183471 0.147722
0.341949 0.78819 0.0227776
-0.40797 -0.00915718 -0.0624741
0.504055 0.557399 -0.0462358
0.706799 -0.00814877 -0.151793
0.707829 -0.104607 -0.148305
-0.587842 0.0938883 0.179114
-0.449543 0.406944 0.0379748
0.378505 -0.301998 0.200861
-0.5415 0.120502 -0.0425202
0.155386 0.901146 0.0669234
0.47292 0.375043 -0.00642781
-0.636995 -0.102838 0.205344
-0.478457 0.0938883 0.018898
0.708865 -0.201696 0.09908
0.508877 0.0432723 0.245562
0.688598 -0.300054 -0.137125
-0.346963 -0.438127 -0.0201396
0.517917 0.481642 -0.0383147
-0.678376 -0.0877006 -0.0326929
0.532154 -0.0589426 0.146126
-0.678376 -0.0826724 -0.122661
-0.63223 -0.315183 -0.103245
0.418921 -0.0488921 -0.203812
0.531074 -0.107362 -0.108928
-0.445119 0.246497 -0.0293645
0.70805 -0.125393 0.0754332
-0.598088 -0.18241 -0.159739
-0.346963 0.0671877 0.0816071
0.377624 -0.219509 -0.147684
0.505184 0.0578562 -0.178257
0.251135 0.901752 0.0160802
0.547067 -0.467443 -0.165911
0.491514 0.45477 0.0918818
-0.453296 -0.00915718 -0.0809109
0.37862 -0.312705 -0.142524
-0.645249 -0.042734 -0.176599
-0.541678 0.177338 0.126825
-0.446961 0.518571 0.069037
-0.467188 0.295749 0.068479
-0.492177 -0.440639 -0.178895
-0.5415 0.132786 0.0255154
-0.474379 0.309677 -0.00259368
0.707394 -0.0639501 -0.00645941
0.408259 -0.350387 -0.203812
0.531965 -0.0411428 -0.0587772
0.649431 -0.315141 0.154121
0.565299 0.0922656 -0.0771489
0.577037 0.0104728 0.251501
-0.647531 -0.363263 -0.0214285
-0.471131 -0.18189 -0.197144
-0.346963 -0.0749577 -0.169606
-0.433726 0.590405 0.0065393
-0.45826 0.124879 0.186474
0.5049 -0.0907495 -0.205063
-0.647746 -0.341054 0.0382879
-0.617786 -0.273086 0.14133
0.483554 0.121103 -0.0967788
0.538099 -0.182594 0.251501
0.412503 -0.134096 -0.130585
0.594003 -0.464505 0.0982958
-0.5415 0.126045 0.12705
-0.145308 0.935341 0.0530437
0.533785 -0.211649 0.11167
0.510462 0.561773 0.0613046
0.374796 0.0453918 0.20366
-0.48555 0.378386 0.0734272
-0.668981 -0.152468 0.21064
0.587082 0.128598 0.15402
-0.432175 -0.482813 0.0419216
-0.457215 -0.0702623 0.161716
0.376925 -0.153984 0.173165
-0.346963 -0.435032 -0.113985
-0.115878 0.946269 -0.0333803
0.534465 -0.275382 0.0515415
-0.394551 -0.306928 0.136174
0.489939 -0.0269747 -0.108928
0.44081 -0.459211 0.109428
0.188007 0.931136 0.0720001
-0.466707 -0.326174 -0.0956687
-0.590531 -0.382732 -0.198552
0.516537 0.388596 -0.0251362
-0.451104 -0.0584508 0.257122
0.467835 0.0912246 0.13268
0.500791 -0.382106 0.0131093
-0.45488 -0.388559 0.202257
0.627357 -0.228946 0.212435
-0.558086 -0.300024 -0.47559
0.442041 0.265398 -0.0426249
0.469821 0.194584 -0.0650786
0.706778 -0.00628009 0.0231993
0.522518 -0.146288 0.0418011
0.463083 0.00834531 0.251501
-0.346963 0.0505395 0.00525632
0.621194 -0.43939 0.0767705
-0.596125 -0.472524 -0.139989
0.477097 -0.322689 -0.203812
-0.617786 -0.401696 0.0472273
-0.678376 -0.314371 0.00780846
0.532835 0.293792 -0.0397478
-0.346963 0.019822 0.147874
-0.503199 -0.171297 -0.00813746
0.478889 0.640037 -0.0466585
-0.678376 -0.110386 0.0358859
0.645198 0.0861835 0.171273
-0.382753 0.00643615 0.019937
-0.444111 0.672901 0.0819617
-0.559459 -0.0568577 0.264762
-0.648081 -0.0038445 -0.142034
0.457651 0.5952 -0.0215066
-0.516017 0.0878527 -0.119549
0.404379 -0.157876 0.251501
0.472963 -0.00960656 -0.211035
0.56797 -0.122504 -0.203812
-0.456821 0.0938883 -0.0142393
0.660734 -0.285227 -0.196236
-0.400645 0.668454 -0.0115992
-0.648081 -0.0387329 -0.108099
-0.365558 0.00744061 -0.0470042
0.484142 -0.44228 0.13323
-0.677091 0.0388841 -0.0523604
-0.662519 -0.333665 -0.0686125
0.0279233 0.956947 -0.052065
-0.430974 0.309725 0.0135715
-0.632458 0.0388841 0.14938
0.621284 -0.371653 0.126137
-0.560126 0.227904 0.0681778
0.469034 0.67669 0.0296893
-0.596125 -0.330862 -0.174788
-0.463732 -0.213421 0.161716
-0.493795 0.436985 0.0141947
0.674522 -0.0878902 -0.158151
-0.49263 -0.223041 0.040766
-0.432416 -0.207211 0.264762
0.0489646 0.918906 0.0263036
-0.453342 0.475796 0.0105413
0.708464 -0.26452 -0.196236
0.684373 -0.19037 0.170955
-0.346963 -0.432518 0.100571
-0.503199 -0.118198 -0.0435928
0.471873 0.0912681 0.17093
-0.471219 -0.482813 -0.0822462
-0.678376 -0.0556912 0.0959076
0.468723 -0.135988 0.251501
-0.36987 0.0859258 -0.125225
0.388966 0.00393043 0.0983797
0.626051 -0.479793 -0.137536
-0.678376 -0.233272 -0.110101
-0.55189 -0.435582 0.152182
0.706298 0.0387201 0.0848724
0.500284 0.128547 0.173213
0.523157 -0.206164 -0.00762881
0.420651 -0.202716 0.251501
0.647771 -0.154805 0.220198
0.422123 0.0907367 0.0706489
-0.391503 0.0938883 -0.0661127
-0.45614 -0.26 0.257122
-0.49263 -0.279095 -0.0694925
-0.363847 -0.478696 0.082174
-0.560126 0.188641 0.0794214
-0.324365 0.779357 -0.0415365
-0.59604 -0.472038 0.0957278
0.52377 -0.263561 -0.059915
0.439792 0.142683 0.0831459
-0.596433 -0.240875 -0.159739
-0.400374 -0.136202 0.161716
-0.346963 -0.0491094 0.215296
-0.469559 -0.00915718 0.101946
0.0177454 0.924754 0.0666429
-0.653048 -0.299726 -0.134388
-0.13951 0.896688 -0.051189
-0.591816 0.0938883 -0.0594489
0.106127 0.951054 0.022826
-0.386631 -0.413331 0.177924
0.418063 -0.421809 -0.204481
0.407981 0.0902369 0.178538
-0.49263 -0.326407 -0.0629521
-0.366027 0.78978 -0.0286257
-0.475228 -0.482813 0.0426515
0.504301 0.0916137 -0.0853693
0.568546 0.119986 0.035078
0.536304 -0.422483 0.157022
-0.558695 -0.315739 -0.24503
0.620354 -0.189198 -0.203812
-0.330926 0.768535 0.0260665
0.708106 -0.130528 -0.065203
0.67801 -0.20407 -0.166259
-0.492242 0.0742061 -0.147475
-0.596125 -0.247546 0.223724
0.474687 -0.394507 0.185864
-0.49263 -0.23601 0.112874
0.284315 0.84351 0.0117068
-0.678376 0.020229 0.132176
-0.457462 -0.43566 0.152076
0.37588 -0.0561801 0.25037
-0.346963 0.0848354 0.21706
0.483354 0.49134 0.0885544
-0.416658 -0.275657 0.157219
-0.678376 -0.0587382 0.168166
0.34887 0.8371 0.0589105
0.471678 0.086867 -0.127988
0.427044 0.672031 -0.00302627
0.64997 -0.360736 -0.100361
0.646294 -0.01646 0.213707
-0.678376 -0.123357 -0.00155366
0.70706 -0.0325985 -0.112688
0.677577 -0.0819178 0.181436
0.48919 -0.364082 -0.205556
0.480872 0.470298 0.0159291
-0.409099 -0.168424 -0.0956687
-0.521841 -0.307869 -0.284263
0.396027 -0.486276 -0.0950692
-0.553106 -0.384298 0.205848
0.380028 -0.444667 -0.00837845
-0.648081 -0.0990371 -0.108169
0.416496 -0.161486 -0.203812
0.52138 -0.039772 0.11594
0.379128 -0.360325 0.147326
-0.208748 0.870442 0.0167528
0.286548 0.882091 0.0261613
-0.459007 -0.0216393 -0.190551
0.447019 -0.175563 -0.108928
0.526775 -0.124572 0.251501
-0.503199 -0.102454 0.0168318
-0.560126 0.197723 -0.00548162
-0.36209 -0.141692 0.178314
-0.617786 0.0501909 0.103792
-0.557008 -0.460732 -8.30199e-05
0.487158 0.27429 -0.00884957
-0.491254 0.423912 0.0690124
-0.412995 0.237479 0.0813483
-0.174986 0.879064 -0.046058
-0.491029 -0.00915718 -0.0524374
0.482792 0.640805 0.00139355
0.647451 -0.12475 -0.129319
0.376819 -0.144128 0.214639
0.439242 0.194199 0.123954
0.428368 0.0908029 0.00592991
-0.346972 -0.482813 -0.034451
0.0469725 0.917305 -0.0219964
-0.558011 -0.298074 -0.323308
-0.530971 -0.453492 0.126936
-0.489093 0.496445 -0.0282839
0.0880378 0.913016 0.01473
-0.678376 -0.00486279 0.00319604
-0.509489 -0.212804 0.264762
0.365854 0.763408 0.0734914
-0.521511 -0.299449 -0.375666
-0.409976 -0.207515 0.161716
-0.523422 -0.339838 -0.570496
-0.397429 -0.112335 0.264762
-0.445932 0.529759 -0.00598533
-0.48992 0.499066 0.0656948
-0.485614 0.369889 0.00725536
-0.398407 -0.3184 -0.190551
-0.0708574 0.935746 -0.0559614
-0.617786 0.0916918 0.0644148
-0.346963 0.0525791 -0.0705266
0.405644 0.763285 -0.0515485
0.461921 -0.0118901 0.0511434
0.505738 -0.145096 -0.203812
0.378103 -0.264386 0.22585
-0.392515 0.754692 0.0448707
-0.459109 -0.0530373 -0.0956687
-0.558342 -0.306642 -0.587025
0.521387 -0.0404376 -0.01106
0.487205 -0.381218 -0.0786334
-0.678376 -0.16911 -0.0247639
0.459541 0.311743 0.0533864
-0.617786 -0.360385 0.0597855
0.457303 0.704826 -0.0332815
0.466434 -0.0225865 0.134477
-0.461138 0.0741567 0.238184
-0.346963 -0.308173 0.186805
-0.444383 -0.0610414 -0.190551
-0.678376 -0.173214 0.140467
0.454323 -0.231348 0.148456
-0.64433 -0.399879 -0.0214285
-0.4978 -0.291834 0.264702
0.376041 -0.0712312 0.175782
0.62913 -0.437857 -0.0891491
0.678813 -0.33838 -0.034689
-0.397412 0.0688322 -0.155072
0.435955 0.0604261 0.235172
-0.577113 -0.196045 0.264762
-0.503199 -0.00947224 0.0882393
-0.62545 -0.240928 -0.182976
-0.416446 0.0840087 0.224381
-0.60856 0.0404781 0.223416
-0.49263 -0.0521534 -0.0184606
0.46745 -0.341781 0.0931944
0.37643 -0.107686 -0.18571
-0.412995 0.127508 0.0318256
-0.433569 0.173554 0.172277
-0.601206 -0.387856 -0.0746244
0.55549 -0.469419 0.090271
0.367233 0.766294 -0.0540917
0.586419 0.190725 0.115493
-0.346963 -0.372145 0.0927253
-0.476037 0.0938883 0.101918
-0.503199 -0.288362 0.0910808
-0.678376 -0.247754 0.049901
0.620909 -0.412765 0.123586
0.479433 0.24181 -0.0426249
0.645303 0.0764076 -0.0573323
-0.678376 -0.10371 0.153825
-0.346963 0.033205 0.261969
-0.387412 0.0938883 -0.0239333
-0.523036 -0.338415 -0.368849
0.286615 0.829278 -0.0213238
-0.416146 0.724728 0.0882482
-0.647024 -0.209953 0.174568
-0.53164 -0.334702 0.242066
-0.503199 -0.347989 0.00194467
0.586059 0.224348 0.0499316
0.606778 -0.135725 0.251501
-0.382753 -0.298937 -0.100226
0.533686 -0.202406 -0.0769355
0.509683 0.263823 -0.0426249
-0.678376 -0.183459 0.0111468
-0.547611 0.0938883 0.158427
0.374756 0.049063 -0.0851628
-0.596616 -0.127444 -0.159739
-0.52496 0.201579 -0.0372065
0.667076 0.0190625 0.158867
0.521925 -0.0908394 0.0605599
-0.412995 0.234999 -0.00170181
0.66132 -0.392494 -0.000124502
-0.63965 -0.174772 0.198113
-0.653597 0.0388841 0.0332627
-0.516114 -0.317209 -0.666108
-0.678376 -0.0446955 -0.163685
-0.443978 0.0362638 0.261958
-0.508363 -0.330287 -0.190551
0.541658 0.196194 -0.0633709
0.254647 0.874554 0.0795103
0.438681 0.246723 -0.00701251
0.558902 0.25724 0.101995
0.707469 -0.0709517 -0.0744723
0.445739 -0.0997186 -0.108928
-0.469987 -0.459723 0.117263
0.390865 0.0864719 -0.12661
0.410446 -0.295349 -0.203812
-0.45267 0.399179 0.1045
-0.346963 -0.384512 -0.168681
-0.384037 -0.47807 -0.126387
-0.617786 -0.267724 0.202285
0.312822 0.834162 0.0802994
-0.644789 -0.000513093 0.173445
0.411677 -0.411036 0.170602
0.707456 -0.0697309 0.163401
0.41139 -0.465297 -0.171288
0.613321 0.0927782 0.103176
0.709564 -0.267167 0.0417971
-0.558925 -0.343383 -0.600097
0.52427 -0.310369 0.0219944
-0.346963 -0.480712 0.0353763
-0.312025 0.843756 0.0786757
0.514344 -0.01133 -0.064802
0.532493 -0.135287 0.148456
-0.642908 -0.189946 -0.106542
-0.453774 0.325445 0.0400243
-0.503199 -0.135635 0.146501
-0.640691 0.0361038 -0.0790373
0.707876 -0.109109 0.197168
0.584588 -0.412095 0.167515
-0.537108 -0.255744 0.264762
0.500146 0.601259 0.0504175
-0.617786 -0.0148699 0.225571
-0.414489 0.177375 -0.0747558
-0.617786 0.0793518 -0.0352371
-0.508714 -0.468679 0.101713
0.648176 -0.192697 -0.144195
-0.581076 -0.290854 -0.190551
-0.387089 0.695643 -0.0319551
-0.480773 0.566099 0.0368114
0.53196 -0.0407379 0.0701077
0.374472 0.0757696 0.124664
-0.430445 0.0938883 0.163388
-0.597945 0.0712164 -0.123594
0.623464 0.0927861 0.0133927
-0.457558 0.60941 0.0981061
-0.581067 0.0938883 0.0124337
0.522246 0.440159 -0.00250874
0.520485 -0.484947 -0.0870088
0.707803 -0.102254 -0.089476
-0.413291 -0.41872 -0.191175
0.70832 -0.150603 0.0516096
0.679089 -0.2504 -0.122232
-0.37339 -0.0618276 -0.118754
0.480955 0.589894 -0.0498695
-0.462038 0.276853 -0.00345394
-0.346963 -0.236052 0.214981
0.687783 0.0341314 -0.0960657
0.41189 -0.469304 0.0932073
0.627773 -0.31078 -0.201804
0.549002 0.293963 0.0327353
-0.503199 -0.015418 0.0445527
-0.184248 0.919541 0.0531237
0.385634 0.798166 -0.0125207
0.622216 -0.00180892 -0.209898
0.376345 -0.0997689 0.220226
0.507689 -0.263188 0.148456
0.513306 0.143431 -0.0967788
-0.51462 -0.460732 -0.0575614
0.379934 -0.435778 -0.138748
-0.634955 -0.429617 -0.00607422
-0.346963 -0.419059 0.0231638
-0.396382 -0.23993 -0.190551
0.476397 -0.430034 -0.200261
-0.443321 0.357733 0.0460006
-0.361209 0.740727 0.091147
-0.37215 0.00190176 0.264762
-0.375913 -0.0164353 -0.198394
0.399128 0.751745 0.0823054
-0.560126 0.26488 0.113115
-0.53588 -0.345143 -0.725264
-0.0334287 0.915345 -0.0188922
-0.467294 0.438264 0.0359946
-0.346963 0.0220245 -0.164627
-0.558378 -0.307559 -0.514559
-0.587649 -0.421567 -0.161325
-0.617786 0.0427508 0.18675
-0.560126 0.273237 -0.0264627
0.449838 0.268613 0.0230047
0.677558 -0.106992 -0.127012
0.426905 0.0907881 0.149992
-0.151629 0.930712 -0.0110452
0.709617 -0.272044 -0.119775
-0.617786 -0.0362835 -0.127091
-0.498636 -0.00101878 0.264762
-0.0679339 0.917307 0.0783142
0.397346 -0.0152521 -0.211352
0.545567 -0.24199 0.251501
0.576054 -0.246908 -0.203812
0.445085 0.722196 0.0397428
-0.412995 0.291646 0.0414672
-0.481882 0.570575 -0.0232152
-0.596125 -0.435692 0.113568
-0.678376 -0.15975 -0.0669117
-0.550256 -0.127679 -0.190551
0.607832 0.0251564 0.25073
-0.369935 -0.380161 0.209291
-0.469543 -0.365629 -0.0866878
0.708222 -0.141455 -0.168898
-0.540288 -0.270916 -0.732927
0.666378 -0.334446 -0.0786195
-0.49263 -0.327564 0.0671417
0.143911 0.902491 -0.0159401
0.452513 0.612423 0.0457004
0.437518 -0.275853 0.251501
0.534999 -0.325304 -0.0722708
-0.617786 0.0752658 0.199401
-0.412995 0.117915 -0.0556404
-0.563405 -0.280067 -0.682552
-0.438852 -0.00915718 0.0705808
-0.646923 -0.256614 0.146566
0.406521 -0.116231 0.165053
0.683667 -0.0891722 -0.196236
-0.431034 -0.0966429 0.264762
-0.505996 -0.0741122 -0.190551
-0.503199 -0.189306 -0.0620129
-0.346963 0.0107937 0.0393191
-0.459284 0.205586 -0.0293645
0.519917 -0.0396041 0.251501
-0.483878 -0.0142022 0.139655
-0.503199 -0.185035 0.122118
-0.541696 -0.433986 -0.18334
0.620181 -0.36322 -0.177611
0.521813 -0.0803464 0.00709635
-0.52318 0.223152 0.115255
0.450188 -0.410362 -0.20825
0.385633 -0.379932 -0.132014
-0.617786 -0.465989 -0.013142
-0.404579 -0.331324 0.244142
-0.678376 -0.385917 -0.00537594
0.379412 -0.386927 0.191655
-0.435736 -0.482813 -0.0501904
0.645813 0.0285293 -0.161753
0.643914 0.0660045 0.198143
0.0643041 0.955152 -0.0215322
0.585569 0.270295 0.0118125
0.486322 0.0914221 0.101993
-0.591956 -0.318224 0.224672
-0.472592 -0.379768 -0.0564187
0.379673 -0.411337 0.112177
-0.678376 0.0194507 0.098674
0.534563 -0.284534 -0.083709
0.586983 -0.374251 -0.203812
-0.421184 -0.28318 0.264762
-0.617786 -0.333267 -0.0751538
0.430278 -0.48591 -0.00758141
0.645568 0.0515242 -0.104331
0.6119 0.0927634 0.0697541
-0.678376 -0.298078 0.0935648
0.458636 -0.0119246 0.00210269
-0.648081 -0.136239 -0.148299
0.647464 -0.345485 -0.161134
0.379457 -0.391092 0.057826
0.535574 -0.379156 -0.0816161
0.522727 -0.165915 -0.0169554
-0.504349 -0.470892 -0.143755
0.534524 -0.280785 0.0899312
-0.569922 0.0938883 0.0787695
0.70938 -0.249858 -0.0609284
0.596633 -0.0590019 -0.203812
0.707917 -0.112928 0.0252596
0.374986 0.0275318 -0.1403
-0.648081 -0.246514 -0.106674
0.644777 -0.35732 0.10579
0.645432 0.064279 0.128027
-0.503199 -0.0509129 -0.0947857
-0.473766 0.0938883 0.139316
0.400774 0.00405587 -0.0617077
0.482509 -0.485002 -0.114769
-0.528911 -0.158906 0.264762
0.694318 0.0386361 -0.0344361
0.523088 -0.199767 0.144278
-0.209514 0.867032 0.0745058
-0.0715607 0.919509 0.0132456
-0.58488 -0.0781153 0.264762
0.647197 -0.101049 0.223013
-0.611478 0.0220917 0.263836
0.477215 0.0913244 0.0402751
0.609726 -0.259561 -0.203812
-0.617786 0.0232058 -0.13825
0.41882 -0.486033 0.0312755
0.501068 0.595896 0.00470421
-0.561159 -0.166094 0.264762
0.627551 -0.289941 0.228724
-0.438794 -0.170205 0.264762
-0.525791 -0.341091 -0.216982
0.612366 0.0927683 -0.0237387
0.409132 -0.399684 -0.0100061
-0.560126 0.263975 0.0789967
-0.503199 -0.0650356 0.122324
0.533215 -0.158275 0.0876388
0.506291 0.324012 0.0324083
-0.397095 0.725406 0.0202551
-0.5415 0.121483 0.0720346
-0.464083 -0.216744 -0.0956687
0.675448 -0.17467 -0.147887
0.438099 -0.377014 0.0465972
0.527538 -0.373118 -0.203812
0.530888 0.0755216 -0.155787
0.708069 -0.333578 -0.085067
-0.54591 -0.352216 -0.668556
-0.524522 -0.282776 -0.408895
-0.678376 -0.0526907 -0.00882883
0.675141 -0.0358124 0.19738
-0.55874 -0.354606 -0.190551
-0.641951 -0.299726 -0.182853
-0.446445 0.0870961 -0.121778
-0.272654 0.81996 0.00287604
0.488486 -0.059713 -0.108928
0.37448 0.0749468 0.185954
-0.383813 0.0775335 0.234333
0.632914 -0.483746 -0.0647793
-0.554062 -0.278143 -0.649925
-0.414951 -0.344742 -0.0954148
0.601208 -0.0206941 0.251501
-0.111401 0.904975 0.0181178
0.628057 -0.337307 0.20313
0.660805 -0.292457 0.101388
0.512058 -0.354397 0.0780752
-0.346963 0.086627 0.121761
0.574457 -0.48437 -0.106256
0.377024 -0.163313 -0.170338
-0.617786 -0.363094 -0.0613886
0.707156 -0.0416831 0.0638508
0.482545 -0.321054 0.238064
-0.49263 -0.261251 0.0744969
-0.369099 -0.396365 0.0156051
-0.514431 0.0280681 -0.187335
-0.678376 -0.236119 -0.0152961
-0.678376 0.00726974 -0.0627576
-0.381773 -0.1505 -0.190551
-0.0972292 0.948458 0.00584398
-0.412995 0.202371 0.0251628
-0.346963 -0.0909648 0.249524
-0.346963 -0.125435 0.230161
0.462032 -0.232218 -0.108928
0.375436 -0.0145864 -0.184754
0.661635 -0.0374687 -0.159251
-0.389884 0.0477079 0.257742
-0.596125 -0.457961 -0.0914029
-0.617786 -0.177906 -0.133121
-0.287657 0.847363 0.0143784
0.707528 -0.0764787 0.0853761
0.591909 -0.363734 0.210042
0.380719 -0.304084 0.148028
0.682026 -0.0179 0.161299
0.62053 -0.426207 -0.156557
-0.648081 -0.215495 -0.133442
-0.503927 0.295749 0.112723
-0.437829 0.196981 -0.0523051
0.458683 -0.37147 0.205409
0.649145 -0.283406 -0.157744
-0.678376 -0.0950696 0.109885
0.339206 0.840311 0.0108238
0.592566 -0.228937 0.251501
0.51513 -0.467121 -0.0154482
-0.445547 0.304944 0.109281
-0.501082 0.0704984 0.242235
0.503529 -0.214501 -0.210404
0.209747 0.875586 0.00661535
0.709101 -0.223795 0.0755715
-0.426581 -0.00915718 -0.00836068
0.401548 -0.486217 -0.0283234
0.376321 -0.0974163 -0.135498
0.430537 0.667623 0.0594478
-0.351261 -0.482813 -0.0932114
-0.391937 0.0938883 0.0686123
0.698255 -0.392324 -0.000124502
-0.647936 -0.112058 -0.182976
-0.678376 -0.212318 -0.0856527
-0.346963 -0.260728 0.178526
-0.617786 -0.349903 -0.129476
-0.525973 -0.341187 -0.434679
0.50239 0.091594 0.147831
0.482611 0.293255 0.0385299
-0.445875 0.369956 -0.0157583
-0.591899 -0.250861 -0.190551
0.38478 -0.428148 -0.201673
-0.617786 0.0838141 0.13148
-0.678376 -0.146609 -0.0961931
0.375123 0.0147484 0.126495
-0.678376 -0.297761 0.0528926
-0.528588 -0.280226 -0.192108
-0.443528 0.217528 0.115255
-0.412995 0.10888 0.0996341
-0.503199 -0.202915 0.0070845
-0.617786 -0.142143 0.246605
0.374533 0.0699729 0.0821158
0.400886 -0.06796 -0.132014
-0.678376 -0.175255 0.0437132
0.40777 -0.378052 0.0757423
0.676513 -0.00922631 -0.137042
-0.617786 -0.180443 0.220758
-0.521079 -0.284935 -0.608971
-0.478136 -0.380266 -0.19581
-0.523812 0.0938883 -0.0425844
-0.651014 -0.124743 0.186781
0.522715 0.462883 0.0627229
-0.503199 -0.25291 0.0370711
0.578167 -0.19597 -0.203812
0.395403 0.00399858 0.0431008
0.376071 -0.073974 -0.2011
0.533334 -0.347573 -0.10862
0.529056 -0.123419 -0.203812
-0.35979 -0.135502 -0.118754
0.62724 -0.260748 0.213813
-0.503199 -0.359436 0.0508017
0.709887 -0.297399 0.0658251
-0.413596 0.637817 -0.0144526
-0.478406 -0.372168 0.215942
-0.678376 -0.235443 -0.156467
0.51855 0.492782 0.034998
-0.646244 -0.0260947 0.202676
-0.5415 0.16955 0.0565509
-0.583596 -0.122949 0.264762
-0.43644 0.686606 0.0543939
0.624268 0.043695 0.209209
0.51149 -0.211137 -0.108928
-0.488392 -0.0431202 0.264762
0.649508 -0.317451 -0.141326
0.645463 0.0613733 0.0587722
-0.351348 -0.453594 -0.167748
0.67587 -0.420796 -0.034689
-0.503199 -0.0413848 0.0739221
-0.617786 -0.104416 0.230426
-0.513511 -0.120281 0.264762
0.538565 0.0919802 0.158014
0.489974 0.537099 0.020578
-0.47688 -0.283989 0.152159
0.645411 0.0662178 -0.00188058
-0.439196 0.0937392 -0.085794
-0.346963 -0.270202 -0.124727
0.583688 -0.295551 0.250345
0.459651 0.266577 0.0729611
-0.543494 -0.00194126 -0.196867
-0.349366 -0.094397 0.178314
-0.492788 -0.379768 -0.0203362
0.379843 -0.427244 -0.0736999
0.524308 -0.313972 0.0914463
0.474341 -0.121117 -0.108928
0.523445 -0.233175 -0.0509895
0.213471 0.91066 -0.0545935
-0.367878 -0.315101 0.150763
0.533351 -0.170984 -0.0770906
-0.509216 -0.247783 -0.190551
-0.662019 -0.336296 -0.0284696
-0.520586 -0.19848 -0.190551
0.633767 -0.0912918 -0.172999
0.709133 -0.226715 -0.00248009
-0.455634 0.268959 0.0799745
-0.390162 -0.378571 0.0517232
0.706934 -0.020864 0.10922
0.470606 0.355948 0.0429339
0.629469 -0.469552 0.0785542
0.0114144 0.963252 0.042131
0.392794 0.00397093 -0.0148497
-0.617786 -0.298363 0.15977
-0.546584 0.295749 0.0407986
0.427796 -0.338727 0.0968913
0.710007 -0.30857 -0.0331028
0.412844 0.768709 0.0599544
0.460953 -0.0158081 -0.105677
0.628749 -0.337581 0.131206
-0.480074 -0.2232 0.264762
0.710752 -0.378456 -0.0339621
-0.380311 -0.339899 0.129344
-0.19966 0.913135 0.079457
-0.485833 -0.111819 0.161716
0.646744 -0.058595 -0.141843
-0.475606 -0.312945 -0.195694
0.504055 -0.311057 -0.108928
-0.49371 0.197239 -0.0517806
0.571981 0.15527 0.168272
0.523236 -0.213521 0.0531188
-0.656343 -0.0731809 0.198387
0.376094 0.744287 -0.01955
0.449107 0.0165775 -0.204336
-0.472823 0.600435 0.0339689
0.289828 0.831525 -0.0540266
0.674698 -0.199704 -0.119802
-0.179958 0.882835 0.0816486
0.500751 0.193645 -0.0676544
0.523791 -0.389993 0.189591
0.35195 0.780061 0.0513331
0.0840338 0.922019 0.0789197
-0.492168 0.295749 -0.0237693
0.594264 -0.463736 -0.170703
-0.645249 -0.0761696 -0.17273
0.487778 0.411264 0.0252833
-0.669027 -0.238774 0.158855
0.565838 0.224726 0.101995
0.469048 0.573285 0.0708257
0.549648 -0.292849 -0.203812
-0.479801 0.562487 0.0961031
0.0273564 0.959913 0.0779695
0.438968 0.0844442 -0.134095
-0.527078 0.295749 0.0033679
-0.483038 0.371302 0.103362
0.63671 -0.413315 0.0530724
-0.648081 -0.0352109 -0.13872
-0.543137 0.165231 -0.0547999
-0.678376 0.023428 0.0234986
0.62847 -0.375907 0.172201
0.709044 -0.218458 -0.0632771
-0.404234 -0.363744 0.222294
-0.588171 -0.398247 0.11966
0.596834 -0.316423 -0.203812
-0.370856 0.0280819 -0.187328
-0.428249 0.0511993 -0.172822
-0.579114 -0.482813 -0.0683675
0.4387 0.24495 0.056866
-0.561947 -0.463751 -0.0364293
0.628846 -0.411177 -0.193316
-0.503199 -0.0789429 0.0550912
-0.180019 0.919128 -0.0130136
-0.521994 -0.28436 -0.5371
0.476899 -0.26118 0.243861
0.412756 0.725402 0.0145226
-0.450744 0.40917 -0.0169623
0.567963 0.17457 -0.0289714
-0.49263 -0.322132 -0.0107301
-0.678376 -0.340874 0.0370484
0.53949 -0.417901 -0.205368
-0.346963 0.0662435 -0.12021
0.114204 0.907991 -0.0208152
-0.532365 -0.47598 -0.132543
-0.203034 0.86648 -0.0225505
-0.49263 -0.199436 0.0602073
0.436847 -0.33955 -0.203812
-0.503199 -0.138221 -0.0204922
0.426765 -0.485948 -0.0867214
0.499853 -0.061077 -0.210404
-0.49263 -0.0592784 0.0120357
-0.504427 0.179949 0.166831
-0.208367 0.903762 -0.0478675
-0.476548 -0.106264 -0.0956687
-0.588171 -0.347839 0.182014
0.509523 0.00775963 -0.207548
