ply
format ascii 1.0
comment Created by Open3D
element vertex 1650
property double x
property double y
property double z
end_header
0.293087 -0.361802 0.286578
-0.380008 -0.564028 -0.207021
-0.376695 -0.610104 0.00298149
0.663709 -0.0308827 0.066184
0.710944 0.54696 0.129616
-0.749796 0.358403 0.129616
-0.370521 -0.256046 0.330137
-0.503194 -0.591617 0.106009
-0.265885 -0.569153 0.130182
-0.560035 -0.456282 -0.267644
-0.391524 -0.539234 -0.0837408
-0.530513 0.0836696 0.172805
0.531981 -0.0525788 0.193998
0.541612 -0.160986 0.326536
0.111405 0.903665 0.129616
0.445006 -0.481694 -0.112132
0.528938 -0.276071 0.31626
-0.267814 -0.241417 0.191432
0.401621 0.0162511 0.196024
-0.542771 0.0340326 -0.127396
-0.626022 0.661357 -0.038974
-0.0778925 0.933002 0.129616
0.234242 0.957936 0.0589419
-0.0714951 0.850235 -0.00841434
0.415043 0.0482087 -0.0258245
-0.718932 0.159616 0.0863705
0.0903426 0.922375 -0.12958
-0.448633 0.739007 0.0248225
-0.589797 -0.385421 -0.00537267
-0.574264 -0.152756 -0.173365
0.753485 0.25131 -0.124856
0.204993 -0.451909 0.0936592
-0.565924 -0.227087 -0.0940654
-0.6625 -0.0825115 -0.135064
0.459586 -0.0267824 0.0490616
0.555178 0.00265546 -0.00815577
0.34238 -0.636489 -0.147316
0.47895 -0.596385 0.0216943
-0.60962 -0.0849291 0.202512
0.576017 -0.490301 0.0801248
0.631262 -0.124148 0.219895
0.282993 -0.266197 -0.212205
-0.570988 0.0966898 0.00740159
0.520732 -0.0502973 -0.235788
0.526743 0.0764159 -0.121056
0.615158 -0.397112 -0.173998
0.451752 -0.243599 -0.233597
-0.627676 -0.295232 0.0618076
-0.211112 0.882842 -0.12958
0.279917 -0.547988 -0.232178
-0.323025 -0.413238 -0.31847
-0.550992 -0.444343 0.177905
0.646868 -0.32161 0.0189394
0.332888 -0.147396 -0.244605
0.374783 -0.426858 0.190993
-0.436472 0.824527 -0.12958
0.549734 -0.536288 0.212127
-0.518673 -0.554762 -0.0807594
0.267908 -0.302113 0.203878
0.600532 -0.431934 -0.0158168
0.497431 -0.134836 0.233467
-0.41659 -0.123298 -0.29416
0.714838 -0.159778 0.142118
-0.265316 -0.405988 0.0440067
-0.37075 -0.247917 0.153962
0.777542 0.102202 0.0457448
0.244253 0.935935 -0.0419612
0.249092 -0.613684 -0.0244091
-0.224253 -0.345135 0.21779
-0.54037 -0.321654 -0.113616
0.633779 -0.222363 -0.266913
-0.220793 0.84786 0.126226
0.710878 0.441792 0.124533
-0.325071 -0.484299 0.094259
0.368534 -0.441733 -0.253794
0.0420024 0.853054 0.00202981
-0.275243 -0.223731 -0.287834
-0.449649 -0.0498239 0.0957366
0.467592 -0.111757 -0.285079
-0.638293 -0.269953 -0.283047
-0.274195 0.932512 0.0507744
0.79598 0.295052 -0.0109048
-0.224066 -0.613281 -0.0931652
-0.285216 -0.199984 0.278438
-0.636504 -0.110709 -0.00214921
0.645442 0.569898 0.0638471
-0.696609 0.0264221 -0.000351813
-0.305205 -0.329883 -0.156758
0.627299 0.601292 -0.100399
-0.232804 0.821932 -0.0622138
0.196369 -0.472444 -0.00135404
0.48731 -0.158933 -0.0715731
0.340194 -0.606253 0.107973
0.571813 -0.396042 -0.290011
-0.617985 0.675114 0.0714041
-0.474065 -0.196488 -0.308112
-0.438001 -0.215421 0.0286039
-0.46999 -0.413488 0.0768887
-0.414969 -0.48146 -0.274371
0.737128 -0.106707 -0.159961
0.735723 0.0618442 -0.143694
-0.531261 -0.266456 0.23753
-0.67249 0.581808 0.0550769
-0.68718 0.424515 0.12563
-0.412613 0.103339 -0.0146503
0.593461 0.708416 0.0486387
-0.397108 -0.312784 -0.303709
0.569875 0.10785 -0.000409167
-0.453626 -0.178213 0.190635
-0.55138 -0.476888 -0.167085
-0.647066 -0.249066 -0.158734
-0.256677 -0.438381 -0.0814087
-0.469653 -0.448289 -0.0916789
0.76357 0.428782 -0.12958
-0.313491 0.918285 -0.0834015
0.321053 -0.175578 0.242071
-0.410897 -0.279951 -0.0279456
-0.448198 -0.19114 -0.155918
0.621066 -0.162446 -0.187406
-0.332016 -0.088555 0.264031
-0.501424 -0.299709 -0.228661
-0.44664 -0.451082 0.259929
0.21954 -0.498685 0.1753
-0.705588 -0.109731 0.0979539
0.180081 0.895385 -0.12958
0.53451 0.707275 -0.0876496
-0.294147 -0.55793 -0.0979149
0.312343 -0.206936 -0.30794
-0.523501 -0.0118482 0.135509
0.592792 -0.38738 0.291326
-0.532026 -0.52297 0.0257858
-0.684272 0.52738 -0.0788949
-0.351612 -0.421108 -0.0644078
0.496398 -0.435789 -0.180966
0.517103 -0.611138 -0.0562034
-0.639841 -0.0283708 0.0385727
-0.454458 0.748496 0.118225
-0.166583 -0.482444 -0.114672
0.489116 -0.398251 0.289531
-0.553255 0.743938 -0.0510124
0.76592 0.432231 -0.00451334
-0.713515 0.281787 0.034
0.661704 -0.241659 -0.0227683
-0.397892 -0.118143 0.151301
-0.57497 -0.179853 0.0853031
-0.280198 -0.393 0.275873
-0.528516 0.769953 0.0428985
-0.676679 -0.0375969 -0.0566077
-0.189029 0.944969 0.0349176
-0.773611 0.174677 -0.0630965
0.246373 -0.377385 -0.302452
0.297187 -0.432185 -0.0985409
-0.398203 0.870077 0.118809
0.402194 -0.361589 -0.259083
0.360881 -0.459954 -0.0154542
0.455755 -0.107591 0.323354
-0.692317 0.413396 -0.0584363
-0.387381 -0.335942 0.177868
-0.0694051 0.965447 -0.0782543
0.377765 -0.0405492 0.262406
0.410477 -0.157341 -0.124196
0.389262 -0.013176 -0.120959
0.6008 -0.0805041 -0.225276
-0.339852 -0.449108 -0.236262
0.76245 -0.0464157 0.0899934
-0.415049 -0.270067 -0.12711
0.782377 0.0293054 -0.080146
-0.398777 0.0703996 0.125924
0.383231 -0.617436 0.0355437
-0.503067 -0.372868 -0.272511
0.480871 0.0176286 -0.204245
0.525725 0.804719 0.0504857
0.663464 0.649078 0.0410574
-0.323583 -0.108635 -0.205089
0.591845 0.0868133 0.147242
-0.536521 0.0191528 -0.0449951
0.442643 0.107799 0.161388
0.318769 -0.560223 -0.0576566
-0.225892 -0.51306 0.177907
-0.243771 -0.298665 -0.252724
-0.569808 -0.178162 -0.266404
0.218762 -0.419127 -0.232584
-0.534115 0.114706 0.0803338
-0.448502 0.0769204 -0.14356
0.380346 -0.297099 0.139964
0.625373 -0.256735 0.227315
-0.408705 -0.329032 0.316997
0.4518 -0.555848 0.108012
0.555836 0.0042215 -0.0918607
0.488159 -0.156913 0.12142
0.339674 -0.297411 -0.160097
-0.464715 -0.0537764 -0.251641
-0.380332 0.0213109 -0.187709
0.323471 -0.433939 0.259976
0.432767 -0.565218 -0.148779
0.619847 -0.385945 0.1835
0.509851 -0.43082 0.213925
0.652285 -0.111566 0.0508162
-0.155846 0.97279 -0.0484334
-0.307329 0.799451 0.0112773
0.412688 -0.172261 0.160248
0.369018 -0.233737 0.330639
-0.404987 -0.124771 -0.101552
0.331013 0.840899 -0.129568
0.327881 -0.394714 -0.320427
-0.417658 -0.104455 0.323377
-0.391986 0.874141 -0.0830418
-0.665689 0.469649 0.0540319
-0.513578 -0.0152855 0.272325
-0.716992 0.247859 -0.0448143
0.650496 -0.195969 0.175832
0.660404 -0.0335268 -0.0802821
0.0917502 0.966369 -0.0333709
-0.53175 -0.202749 0.311452
0.736762 0.523601 -0.0534582
0.46912 0.843507 -0.0409911
0.158232 0.969335 0.129616
-0.294476 -0.557147 0.0375627
-0.750359 0.0188806 -0.0597797
-0.701882 0.353177 -0.115532
-0.382784 -0.0165667 -0.00739851
-0.523669 -0.434906 -0.0111586
-0.241042 -0.443702 -0.296514
0.178302 -0.515457 -0.104168
-0.413698 -0.477566 -0.141276
-0.479332 -0.117012 0.0310244
0.506238 -0.522016 -0.0796249
0.392208 0.893783 -0.0222132
-0.135317 0.975177 0.086141
-0.674736 -0.183185 0.105693
-0.306656 -0.647709 -0.00471651
-0.480193 -0.114961 0.261972
0.56384 0.0232803 0.24234
0.711174 -0.0275377 -0.00231836
0.423417 -0.311058 -0.0692634
0.577593 -0.157597 0.170348
0.43244 0.761409 -0.0213082
-0.626222 -0.0317167 0.13325
-0.426908 -0.441736 0.165141
-0.423687 -0.533009 0.184105
-0.516531 -0.288222 -0.0301766
-0.549793 -0.460019 0.267302
-0.541088 0.756732 -0.128362
0.325722 -0.406345 0.0581224
-0.4075 0.03691 0.269446
0.559561 -0.299276 -0.257769
0.51442 -0.343591 -0.307041
-0.192318 -0.55616 -0.196232
0.680498 -0.121382 -0.0365321
-0.149078 0.83986 -0.0171573
-0.586392 -0.39353 0.114359
-0.584184 -0.168343 -0.0122638
0.549293 0.754862 -0.0251081
0.751977 0.176174 0.0808091
0.773369 0.000149403 0.163767
0.40494 -0.355052 0.198617
0.470599 -0.198724 0.0454075
0.433361 -0.287383 0.0752886
-0.156721 -0.505924 0.0215883
0.518587 -0.0844644 0.0992643
0.527693 -0.525901 -0.214032
-0.704029 0.0706941 0.0652391
0.567068 -0.466984 0.153506
-0.699284 -0.124738 -0.0450029
-0.501308 -0.377053 0.286123
0.3743 -0.428004 -0.0979965
0.803637 0.156161 -0.030859
-0.0741003 0.890899 -0.12958
0.316392 -0.565882 -0.162503
0.444171 0.117565 0.0435867
-0.438273 -0.543476 0.0373537
0.745392 0.2661 0.0415366
-0.309442 -0.621174 0.0769276
0.383354 -0.509123 0.225174
0.766295 0.431003 0.0718445
-0.53232 -0.522267 0.151924
0.689318 -0.175915 0.0258888
0.45477 -0.522363 0.195287
0.320144 0.926836 -0.0615664
-0.710618 -0.0834165 -0.193941
-0.734516 0.435933 0.056152
-0.0334669 0.987024 0.0782127
-0.41652 0.83746 0.00100814
-0.639391 0.527984 0.107477
-0.761201 0.344303 0.0235879
0.64954 0.0312865 0.108817
0.408632 0.772164 0.0592676
0.645288 -0.0451384 0.166429
-0.766767 0.278948 -0.126901
0.690472 -0.0800618 0.116884
-0.279653 0.809185 0.0940966
-0.590648 -0.383393 -0.082688
-0.329929 -0.557285 0.177342
0.428511 0.0379055 0.267587
0.655942 0.0304369 0.0233799
-0.480914 0.125892 0.135273
-0.379591 -0.354488 0.101054
0.238653 -0.593372 0.046816
0.643049 -0.330703 -0.151409
-0.594475 0.605713 0.0236423
-0.326529 -0.624938 -0.159736
0.383067 -0.0503284 0.149233
0.476176 -0.185445 -0.273333
-0.46569 -0.149493 -0.224186
0.272823 -0.546243 0.147888
0.569437 0.677644 0.113958
-0.523084 -0.509876 -0.231853
-0.514437 -0.0334305 -0.139179
-0.611235 -0.193417 0.222785
-0.630637 -0.232058 -0.0464844
-0.488502 0.0461371 0.239732
0.564098 -0.216721 -0.293052
0.430203 0.868947 0.115328
0.468369 -0.204034 0.24846
-0.459684 -0.598648 -0.0741725
0.510968 -0.525522 0.0762782
-0.229903 -0.332616 -0.185943
-0.577302 -0.0907791 0.03675
-0.587266 0.618189 -0.092373
0.397114 -0.492571 -0.298318
-0.319598 -0.300391 0.132742
-0.611904 -0.0143396 -0.131719
-0.322294 -0.341263 0.305768
-0.568671 -0.258111 0.0902131
-0.566239 -0.129523 0.154109
0.648446 0.674789 -0.0635368
-0.704913 0.0495239 -0.148962
-0.337386 -0.39467 -0.14878
0.718885 0.554206 0.0362591
-0.553224 -0.331536 0.263664
0.183386 0.887233 0.129616
0.707762 -0.176623 -0.163097
0.201276 0.836738 -0.00126947
-0.508468 -0.387296 -0.0950209
0.659011 -0.248074 -0.0965316
0.226383 -0.50309 -0.250905
0.592553 -0.13952 0.279977
0.560157 0.760233 -0.12958
-0.295641 -0.175164 -0.206902
-0.363793 -0.5322 -0.277021
-0.255133 0.939414 -0.122134
0.257849 -0.326064 -0.243233
0.304428 -0.299172 0.125528
-0.178325 -0.582069 0.0440767
0.294822 0.936004 0.0908693
-0.385457 -0.340525 0.249595
-0.645407 -0.112786 -0.200192
0.22604 -0.401798 0.151902
-0.717495 0.151051 -0.0252432
0.355295 -0.473255 -0.190865
0.370088 0.887597 0.0609746
-0.498997 0.710266 0.069111
0.438816 0.0989334 -0.0892214
0.564004 -0.421623 -0.219088
0.620174 0.0324112 -0.126549
0.442741 -0.265053 -0.301346
0.176396 -0.557513 0.0438599
0.505997 0.724207 0.0968749
-0.438183 -0.214987 0.131967
0.558896 -0.300857 0.254495
0.0886278 0.966733 0.106626
-0.626313 0.0391575 0.0220316
-0.556822 -0.24488 -0.286116
0.750894 0.169715 -0.0759679
0.232844 -0.396868 0.0593657
-0.444204 -0.249688 0.322883
0.789082 0.0693137 0.141594
0.52121 0.114606 0.150251
-0.750192 0.0178852 0.0614674
-0.595407 -0.316967 -0.238925
-0.506702 0.124413 0.0125051
0.364777 -0.0714704 -0.207325
-0.316439 -0.504852 -0.200759
-0.706149 0.0833459 -0.0400248
0.69368 0.486802 -0.120416
0.425383 -0.30638 -0.217483
-0.370309 -0.0279829 0.125792
0.384331 -0.404122 0.276535
-0.543469 0.672733 0.107951
-0.564144 -0.0903815 -0.238213
-0.772338 0.194048 0.124706
-0.345118 -0.273089 -0.158902
0.601849 -0.102597 -0.0837369
0.179247 0.973589 -0.0138571
0.740054 0.318147 0.0871248
-0.369817 -0.0212425 0.291106
-0.706965 0.334088 -0.030266
-0.454855 -0.487653 -0.218017
0.720435 -0.00548873 -0.100563
-0.472018 -0.434605 -0.271241
-0.014967 0.932564 -0.12958
-0.528146 -0.201577 -0.216798
0.510602 -0.41584 -0.262067
-0.390911 -0.069326 -0.0633531
-0.588012 -0.159176 -0.0895053
-0.614897 -0.325656 0.29304
0.511309 -0.503405 -0.15148
0.528272 -0.0614073 -0.149598
-0.550699 0.665132 -0.0586657
-0.480485 -0.31686 0.226103
-0.180272 -0.449849 0.0527983
0.318878 0.850318 0.129616
-0.501373 -0.322815 0.0345249
0.793025 0.340096 0.0500123
0.402907 0.013957 -0.195678
0.472451 -0.313352 0.323867
-0.402938 0.761427 -0.0953505
-0.297842 0.802701 -0.0586559
-0.574584 -0.0674168 0.270962
0.589152 -0.228817 0.278634
0.45547 0.852431 -0.128841
0.702319 -0.0486195 -0.152795
-0.200438 -0.60679 -0.0301095
0.501787 0.0191062 0.268408
0.526882 -0.0647173 -0.0131193
0.242649 0.954892 0.129171
-0.497975 0.802069 -0.10332
0.44806 -0.522354 -0.0456212
-0.519115 -0.0309332 -0.218584
-0.35302 -0.417754 0.22255
-0.42883 -0.243734 -0.325787
0.319948 -0.511956 -0.272366
-0.31822 -0.37907 0.0890836
0.451106 -0.245132 -0.0828989
0.00377977 0.910068 0.129616
0.513861 -0.0957173 0.292199
-0.471416 -0.111859 -0.0906261
-0.71244 0.0355141 0.158935
0.664822 -0.278861 -0.287733
-0.303761 -0.564062 -0.237724
-0.378805 -0.181428 0.159922
-0.77159 0.145551 0.0481371
-0.576544 -0.416978 -0.138379
-0.621901 -0.165487 0.148081
-0.336205 -0.312163 -0.333036
0.659548 -0.139279 0.11148
-0.474987 -0.119521 0.167954
-0.561364 -0.400479 -0.231595
0.637519 -0.299246 0.0807527
0.474299 0.745234 -0.105931
0.193797 -0.565379 -0.160305
-0.528508 7.16357e-05 0.200583
-0.424116 0.109902 -0.0796026
-0.348359 -0.049646 -0.180989
-0.612475 0.0263288 0.162053
0.491129 -0.532612 0.00476042
0.666118 0.534117 -0.0832868
0.673414 -0.258406 0.272541
-0.28558 0.910013 -0.0101836
0.0735108 0.851568 0.0599247
-0.429291 -0.548522 -0.140682
0.678469 -0.105409 0.178027
-0.408491 -0.463819 -0.0734074
-0.773465 0.176885 -0.128804
0.0999576 0.982811 -0.105924
0.797069 0.278465 -0.0743679
0.567645 0.0323383 0.177547
0.306235 -0.210856 -0.238452
0.682782 -0.103457 -0.203653
0.380484 -0.617757 -0.0940343
-0.491059 -0.487755 -0.144437
-0.457437 -0.511996 -0.084603
-0.624997 0.660463 -0.12958
0.803123 0.186221 0.0417116
-0.538701 -0.507075 -0.0370298
0.300358 -0.62986 0.012299
-0.405357 0.0860619 0.0476326
0.630729 -0.339007 0.228418
-0.303522 -0.239453 0.326646
0.346577 -0.256784 -0.331591
0.671648 -0.26261 0.131564
-0.173366 -0.469969 0.154719
-0.693382 0.00716985 -0.10041
-0.719579 0.222637 0.0713011
-0.599411 -0.317908 0.00810247
-0.275984 -0.44694 -0.0159033
-0.0370228 0.851861 -0.0631801
-0.278335 -0.595577 -0.0305508
-0.633773 -0.186022 -0.164734
-0.345055 -0.436718 0.0552791
0.7317 0.0551863 0.0147953
-0.57292 0.72326 0.0483539
-0.374568 0.773877 0.0264167
0.793231 0.0940652 -0.0944241
-0.401426 -0.302504 -0.1812
0.741972 0.116472 0.102953
0.598732 0.727948 -0.0740344
-0.430498 -0.0289171 0.0378776
0.216288 -0.425018 -0.162401
0.557272 -0.467996 0.0227159
0.469526 -0.201279 -0.177861
0.217398 0.958741 -0.12958
-0.690847 -0.136206 0.0209049
-0.710015 0.315956 0.0883496
0.393555 -0.157941 0.333258
0.234539 0.859619 -0.128684
0.53171 -0.595793 0.0592549
0.576069 0.0523974 0.0546968
-0.668211 -0.0577591 0.088092
-0.687787 -0.152112 -0.157479
0.480999 -0.17396 0.182864
-0.689053 0.553455 -0.00811883
0.435452 -0.34934 -0.32652
-0.504154 -0.44837 0.221323
0.310526 -0.353544 -0.150519
-0.663057 -0.0700298 0.169431
-0.392575 -0.539608 -0.00720603
0.401476 -0.363301 0.0392143
-0.550744 0.0530176 0.0815897
-0.658071 0.606492 -0.0457184
-0.152283 0.907596 -0.12958
-0.749961 0.385489 -0.0445256
0.782198 0.379062 -0.0357505
-0.568193 -0.378496 0.0551342
0.712785 0.414405 0.0414316
-0.15207 0.880128 0.129616
0.744434 0.502408 0.098856
0.33429 -0.171075 0.172528
-0.438586 0.744741 -0.037684
0.35111 -0.293034 0.316763
0.586858 -0.130366 -0.138806
-0.605726 -0.295512 -0.146146
0.557006 -0.46863 -0.043641
0.609565 0.631983 0.0764697
0.290998 -0.247136 0.225136
-0.175688 0.83565 0.0597157
-0.744358 -0.016938 0.133219
0.529846 0.800386 0.126091
-0.365537 -0.00874524 -0.134207
-0.290192 -0.458133 0.242946
-0.193465 -0.433003 -0.0862264
-0.615029 -0.280722 0.216398
-0.376591 -0.606781 -0.0735367
0.616651 -0.385775 -0.23606
-0.428643 -0.387168 0.30318
0.428983 -0.104309 -0.0886596
-0.661404 -0.214927 0.259953
0.721886 -0.00203003 0.0542243
-0.232533 -0.51244 -0.255911
0.273202 0.819499 0.0897971
-0.61731 -0.319912 0.136339
-0.386374 0.0408655 0.179968
-0.288133 -0.509821 0.203359
-0.766484 0.283287 0.00042586
0.66325 0.53908 0.0117235
0.614067 -0.399707 -0.0904453
-0.253515 0.921622 0.111291
-0.666304 0.467631 -0.076905
-0.664298 0.595832 0.125228
0.626513 -0.370076 -0.0146523
-0.652685 -0.235688 -0.219398
-0.155874 -0.507941 -0.170564
-0.343343 -0.470314 -0.303843
-0.487786 -0.563966 0.164661
0.689143 0.60512 0.0908615
-0.473199 -0.354923 -0.220943
0.510096 -0.104683 0.167971
-0.250897 -0.366547 -0.321282
-0.0157709 0.852864 0.0249304
0.41241 0.0419416 -0.0944416
0.374083 -0.117504 -0.302346
0.396394 -0.326663 -0.166511
-0.198166 0.94166 -0.0976543
0.681178 0.618756 -0.12572
-0.766301 0.286063 0.0663162
0.380748 -0.251021 -0.156979
0.710782 -0.0299456 0.166418
0.296831 -0.612453 -0.0828853
-0.630396 0.653867 0.128272
0.610891 0.715161 -0.0146416
0.567177 -0.466724 -0.169659
-0.303675 -0.156034 0.238999
0.604279 -0.423012 0.131072
0.592297 -0.33479 -0.296313
0.742708 0.292303 -0.0420857
0.624392 -0.280343 -0.221584
0.0663076 0.85623 -0.108428
-0.703194 0.529248 0.0655628
0.625637 -0.0430873 -0.176123
-0.625439 -0.255933 0.0101448
0.398164 -0.371185 -0.0957578
-0.660117 0.487946 -0.0165838
-0.628732 -0.151958 0.0656688
0.499022 0.803319 -0.00502563
0.723166 -0.139948 0.218512
0.777371 0.203823 0.129616
0.641025 -0.194559 0.237271
-0.413089 0.792655 0.129284
-0.452323 -0.181321 0.272271
-0.769609 0.235639 -0.0834064
-0.37438 0.88565 0.0643672
-0.502425 -0.0620285 0.00794985
0.520367 -0.346487 0.300224
0.45212 -0.499 0.0802959
-0.363324 -0.0149676 -0.0697485
-0.0356804 0.986766 -0.0317757
-0.45728 -0.353641 -0.321841
0.561647 -0.356719 -0.223823
0.406765 -0.00389742 0.093421
0.244516 -0.357806 0.213476
0.478021 -0.18105 -0.0126643
-0.179622 -0.451399 -0.165716
-0.512709 -0.524339 0.09405
-0.467441 -0.545216 -0.0342671
-0.459017 -0.428846 -0.0296439
-0.617605 0.565683 -0.0851416
0.565003 -0.516526 -0.124239
0.619726 0.614398 0.00110244
0.579331 0.0768222 -0.0643437
0.791656 0.084665 -0.0108689
-0.679738 -0.030313 -0.161238
-0.545674 0.0727044 -0.0804911
-0.496026 -0.0875294 0.313919
-0.269101 0.863467 -0.12958
-0.653467 -0.0928623 -0.0690826
-0.311839 -0.185002 -0.317037
0.324011 -0.547739 0.110027
-0.0400217 0.868515 0.12295
-0.332917 -0.09162 0.179616
0.411143 -0.277061 0.325075
0.502077 -0.525386 0.13917
0.51836 -0.0435141 0.0430754
-0.423749 -0.561716 0.0933472
0.353303 -0.0987911 0.255058
0.334008 -0.144859 -0.173997
-0.198863 -0.405587 0.200715
-0.702756 -0.116471 0.164425
-0.261477 -0.39173 -0.131645
0.353422 -0.477716 0.166019
0.6803 -0.242006 -0.233534
-0.385424 -0.177751 -0.314734
-0.389202 0.0475992 -0.0165333
0.334974 0.80035 -0.0849141
0.515654 0.107622 -0.0705262
0.721339 0.386319 0.103031
-0.154253 -0.511799 -0.0384743
0.201696 0.837906 0.100121
-0.316611 -0.504441 -0.0815273
-0.567403 -0.394198 0.207062
0.438571 -0.274978 0.166867
0.486468 -0.16094 0.302239
-0.708037 -0.0592726 -0.103217
0.449024 -0.532301 -0.196462
-0.623415 -0.214894 0.0786861
0.748527 0.489041 0.0047682
-0.502214 0.70843 -0.0665542
-0.505911 -0.0537288 -0.0669139
0.794104 0.301269 -0.12958
-0.454537 -0.598857 0.0529752
0.363972 -0.452597 0.0438035
-0.370232 -0.376774 -0.26596
0.409978 -0.589837 0.0822371
-0.481551 -0.465823 0.164336
-0.345301 0.787971 -0.101029
-0.289604 0.859458 0.129616
-0.713591 0.11854 0.129295
-0.502321 -0.593692 -0.122866
-0.331125 -0.469885 0.1713
-0.380367 -0.197387 0.332284
-0.611504 -0.192775 -0.22035
-0.521251 0.777593 0.101392
0.673481 0.521374 0.091228
0.509099 -0.107054 -0.222562
-0.657438 -0.223227 0.200255
-0.670965 0.496489 -0.128627
0.548335 -0.449897 0.267228
0.125738 0.847493 0.00611357
-0.76526 0.107786 -0.0550952
-0.496775 -0.0653667 0.127988
0.745048 0.130729 -0.125002
0.724666 0.0132153 -0.0429955
0.74795 0.152145 0.0116584
-0.527351 -0.534101 -0.140664
0.719238 0.393216 -0.0972626
0.690888 0.486296 -0.023405
-0.560788 -0.121111 -0.125567
-0.712626 0.290431 -0.0852553
0.396507 -0.228752 0.157949
-0.517553 0.0125261 -0.179007
0.54064 -0.574534 -0.0972995
-0.196266 -0.563417 0.0978431
0.379588 -0.598979 -0.172834
-0.598594 0.0405214 -0.110727
0.620769 0.704773 0.106028
-0.390027 -0.329642 0.0100622
0.550183 0.753926 0.0345434
0.226317 -0.604641 -0.0776127
0.417638 -0.324822 -0.0127314
0.643861 0.579628 0.121454
0.675324 -0.136184 -0.122259
-0.73722 -0.0344124 -0.0267519
0.757926 -0.0571865 0.0321141
0.413296 -0.600703 -0.0115474
-0.521302 -0.379405 0.0906467
0.608663 -0.134763 -0.245065
0.353887 0.914619 -0.110706
0.461715 -0.033833 -0.247278
0.800756 0.222295 -0.107229
0.44772 0.0819869 0.224672
0.595727 0.649613 -0.0935142
0.278508 -0.456831 0.231112
-0.760094 0.0769622 0.079037
0.68844 -0.0816706 0.0166161
0.784544 0.0422313 0.0904639
-0.568163 -0.217873 0.252999
0.328009 -0.330306 -0.332194
0.379383 -0.421091 -0.319579
0.633663 -0.353049 0.122676
-0.376157 -0.45842 0.264639
0.474587 -0.189226 -0.119089
0.760901 0.448626 -0.0649483
-0.702742 -0.116505 -0.108952
-0.752162 0.378301 -0.128636
-0.675755 0.4366 0.00783903
0.414981 -0.00755443 0.0179809
0.318253 -0.36102 0.0929457
0.51819 -0.487022 0.20424
-0.250242 -0.363785 0.0807488
-0.409569 -0.283114 0.183836
-0.624789 0.553252 0.040129
0.541665 -0.029515 0.248002
-0.720056 0.48316 -0.0641706
0.54284 0.702522 0.00579375
0.183144 -0.503929 0.0630762
0.564238 -0.377384 0.242036
-0.31223 -0.213366 -0.15335
-0.720007 0.388057 0.0907371
0.305177 0.810556 -0.0281449
-0.617776 -0.117798 -0.125158
0.609141 -0.0271994 0.251066
-0.637568 -0.0526255 -0.0129929
0.0774439 0.98543 0.0459693
0.0391056 0.989889 -0.0555715
-0.354648 -0.366782 -0.32745
-0.319283 0.89781 0.0740589
0.616674 -0.226984 -0.203405
0.446342 0.121477 0.106361
-0.412488 -0.0131109 -0.238038
-0.597346 0.697573 -0.072028
0.730791 0.35514 -0.0326807
-0.345067 0.847353 0.129616
0.750952 0.481117 -0.1116
0.687219 -0.0845762 -0.0951736
0.18427 -0.501249 -0.0486074
-0.424596 0.121439 0.138371
0.503331 -0.12079 -0.0320741
-0.5099 -0.575653 0.0456777
0.766376 -0.0370671 -0.109811
-0.619132 -0.217893 -0.270351
0.457512 0.750083 0.0766486
0.525331 -0.470019 -0.220885
0.800188 0.230929 -0.0442758
-0.212829 -0.589565 -0.155801
0.338176 -0.461939 -0.298715
0.794552 0.316831 0.12744
0.359464 0.791962 0.0404119
0.48744 0.734136 -0.0285532
-0.30769 -0.263832 -0.331913
0.423598 -0.310628 -0.274799
-0.475498 -0.126142 -0.035806
-0.0406439 0.986189 -0.12933
0.336086 -0.188656 0.325393
-0.550414 0.049589 0.215033
-0.574987 -0.297622 -0.291103
0.747607 0.266573 0.119406
0.557218 -0.53506 0.139335
-0.641075 0.635587 0.0319868
0.765776 -0.0384932 -0.033089
-0.559107 0.656289 0.0517698
0.733911 -0.114362 0.108775
0.637705 0.0820083 0.0116769
0.414598 0.0471491 0.0300562
-0.418383 -0.497196 0.226594
-0.304148 -0.534117 0.109648
-0.489971 0.715418 -0.0126497
0.476382 0.818117 0.0723898
-0.267844 -0.620555 -0.126681
0.458579 -0.539708 -0.10665
-0.233485 -0.356185 0.271493
0.673826 -0.240493 0.199433
-0.0668223 0.850456 0.0675595
-0.582884 0.625769 -0.0267412
-0.417772 -0.263585 -0.275203
0.339237 -0.511487 0.0515851
0.318684 -0.585524 -0.214239
0.522017 -0.212393 0.332863
0.606494 -0.278393 -0.278417
0.259854 -0.324224 0.263159
0.345351 -0.496932 -0.0535379
-0.546721 -0.20989 -0.0451371
0.197197 -0.470472 -0.137348
-0.629315 0.00654091 0.0801092
-0.363396 0.882387 -0.12958
0.20737 0.835311 -0.0872413
0.400205 0.783355 0.112635
0.693671 -0.210173 0.134728
-0.512533 -0.480264 -0.0782446
-0.721746 0.176409 -0.0831167
-0.372052 -0.372438 -0.0463765
0.505651 0.136607 0.00601442
-0.771578 0.145481 -0.0125963
-0.593455 0.0767872 -0.0407053
0.538337 -0.0374394 0.135689
-0.592514 -0.146396 0.244183
-0.702406 0.0610169 -0.0942812
0.0530357 0.966928 -0.12958
0.780187 0.385634 0.0221813
0.735958 -0.109493 -0.0268627
0.779211 0.369211 -0.12958
-0.679828 0.425827 -0.115768
-0.518748 -0.554583 -0.0176414
-0.360352 -0.0779951 -0.279542
0.393269 0.826384 -0.12958
-0.271738 -0.276094 0.142835
0.511176 -0.21197 -0.313397
-0.722673 -0.069048 0.130067
-0.256841 -0.267546 0.242918
0.269452 -0.393333 -0.124762
-0.238197 -0.591234 0.0770316
-0.132319 0.934403 0.129616
-0.197204 -0.409539 -0.205001
-0.448566 -0.190265 -0.260451
-0.534198 -0.269598 -0.0821339
-0.485835 0.789759 0.0156624
0.418096 -0.207637 -0.143337
0.231123 -0.557995 -0.199097
-0.588657 -0.343509 0.0912824
-0.294214 -0.178559 -0.261026
-0.146279 0.956506 0.00358321
-0.444068 -0.457561 0.0589662
-0.5425 -0.328198 -0.00442877
0.502816 0.0505893 -0.162199
-0.549472 -0.354369 0.138821
-0.706643 0.467945 0.100004
0.240578 -0.428387 -0.0474769
-0.662067 -0.191036 -0.0281536
0.608152 -0.0806781 0.054201
0.713701 -0.162484 -0.0203322
0.482873 -0.57111 -0.0445606
0.664891 -0.0484912 -0.020339
0.390104 0.780534 -0.072202
-0.576931 0.0814231 0.145512
-0.540458 -0.469425 0.131402
-0.598033 0.696852 0.126554
-0.298755 -0.546958 -0.0413303
0.43641 0.0990841 -0.0151597
-0.525172 -0.262565 0.0539356
0.627456 -0.137617 0.167632
-0.381213 -0.583405 -0.156882
-0.737871 0.424974 -0.010168
-0.47552 0.0984017 0.187252
0.394065 -0.010808 -0.04737
0.487181 -0.159244 -0.227871
0.313634 -0.61707 0.0626388
0.0665322 0.851897 -0.0456056
0.657745 -0.295712 0.209849
0.335529 -0.561678 0.160418
0.0582578 0.92916 0.129616
-0.346946 -0.553281 -0.109708
-0.416188 -0.50816 -0.0445762
-0.716189 0.143259 0.0275803
0.554841 -0.0944614 -0.260917
-0.591612 -0.336476 -0.114085
-0.419019 0.85647 0.0642476
-0.410218 0.757774 0.062665
0.530597 -0.00460024 -0.202615
-0.303444 -0.22822 0.154055
-0.592904 -0.139851 -0.237502
-0.682887 0.54922 -0.12958
-0.460096 -0.16281 0.0119928
0.27205 0.925871 0.0181102
-0.383618 -0.344901 -0.154812
-0.478378 -0.380561 0.0284172
-0.647642 -0.247692 -0.0941888
-0.397687 0.0622311 -0.14151
-0.0836521 0.96379 0.0867476
-0.606198 -0.0320064 0.202771
-0.721696 0.198825 0.013275
0.720931 0.411412 -0.0229073
-0.525395 -0.347388 -0.22465
0.33391 -0.524171 -0.189792
0.422914 -0.52285 -0.250084
0.465972 0.799997 -0.12958
0.360352 -0.461217 -0.139392
-0.318391 -0.598507 0.124502
0.797789 0.267512 0.0358411
0.369219 -0.531209 -0.27586
0.276976 -0.30156 -0.173649
0.702286 -0.189661 0.0869945
-0.568016 -0.301397 0.136973
-0.306631 -0.451983 -0.0965238
0.420249 0.0606048 0.167643
-0.754679 0.0446508 -0.13272
-0.496219 -0.342457 -0.0704542
0.615837 -0.0811194 0.245837
0.623825 0.676486 0.0184659
0.272835 -0.588131 0.0863248
-0.356255 -0.0968663 0.323862
-0.525655 -0.471092 0.0293767
0.749253 0.228457 0.0797865
0.603645 -0.283728 0.275604
-0.60108 -0.139504 0.193015
-0.521811 -0.328238 -0.292303
-0.52242 0.776363 -0.0239775
-0.680389 -0.169722 0.155886
-0.472188 -0.134024 0.313407
-0.510134 -0.0436754 0.0822527
0.411012 -0.0806917 0.321855
-0.503642 -0.449053 0.0950571
0.540442 0.764168 0.0900187
0.469491 -0.0436774 0.000674716
-0.141976 -0.541991 -0.0855703
0.780601 0.0187076 -0.138516
0.0386195 0.972549 0.0806847
-0.215114 -0.366893 0.121265
0.722876 -0.14064 -0.09063
-0.265845 -0.637889 -0.0582331
-0.0827831 0.942244 -0.12958
0.556348 0.00544244 0.0439454
0.289002 -0.251889 -0.265366
-0.577221 0.718736 -0.0123435
-0.524836 -0.200433 -0.297697
0.804642 0.163085 -0.0823585
-0.419568 0.835467 -0.0508219
0.174224 -0.571963 -0.0944289
0.598684 -0.436332 0.0491179
0.545877 0.126928 0.0579475
0.574388 -0.493105 0.250004
-0.407499 -0.51283 0.065765
-0.372347 -0.299588 0.144216
0.678142 -0.202525 -0.196708
0.0526954 0.87112 0.124194
-0.324955 0.793413 0.0595417
0.202161 -0.458652 0.14757
0.53041 -0.598893 -0.00776207
0.253013 -0.382972 0.261698
-0.771923 0.200395 0.0611398
-0.549408 0.049833 0.0102304
0.652874 -0.307308 -0.0439035
0.552661 0.113731 0.109279
-0.489862 0.137402 0.0595708
0.599283 -0.205746 0.197967
-0.404442 -0.590533 0.0436684
-0.659079 -0.0795019 0.0322172
-0.688348 -0.00981648 0.153621
-0.763547 0.308687 0.129616
-0.448225 0.837379 0.125123
-0.252533 0.817194 -0.0148331
-0.745278 -0.0114389 0.0193885
-0.682881 -0.0228299 0.00593762
-0.628314 -0.293711 -0.206851
-0.591828 -0.2705 -0.0844747
-0.58422 -0.340193 -0.0555219
0.172069 0.974424 0.0803396
0.253967 -0.335302 0.16715
-0.127222 0.842972 0.0397761
0.669033 0.639545 -0.0317611
0.11806 0.855535 0.112869
0.380807 -0.0333042 -0.17689
-0.602462 -0.0847133 -0.197918
0.39463 -0.000395941 0.146251
-0.373902 0.828501 -0.12958
-0.543641 -0.399113 -0.289775
0.504837 -0.116776 -0.120818
0.456893 -0.363674 0.310733
-0.679271 -0.108275 0.209245
-0.214327 -0.402652 0.0401407
-0.54 -0.503982 0.199147
0.475476 -0.433842 0.176163
0.594657 -0.336668 0.297737
0.394449 0.83123 0.129616
0.62118 -0.382772 -0.290089
0.546419 0.0826567 0.185232
0.473737 -0.446972 -0.27884
-0.658664 -0.134783 0.107578
-0.681218 0.418657 0.0752876
-0.270433 0.813424 -0.10032
-0.501577 0.0834781 -0.106146
0.744288 0.307487 -0.120926
-0.501602 -0.454446 -0.234873
-0.568054 -0.160155 0.0388789
0.420798 -0.317293 0.233321
-0.541001 0.0298196 0.161237
-0.459137 -0.454369 -0.165744
0.556281 -0.110292 0.316151
-0.752412 0.0311261 0.11877
0.761162 0.44777 0.128817
-0.627235 -0.0206339 -0.0836931
-0.339152 0.888033 -0.0441154
-0.207518 0.830948 -0.105312
-0.628282 -0.151768 -0.059523
0.481646 -0.4411 0.263426
-0.416483 -0.52917 -0.212144
-0.529428 -0.253156 0.306871
0.435328 -0.205042 -0.318676
-0.704672 0.0745348 0.0132672
0.369139 -0.360602 -0.32945
0.706739 -0.0380956 0.0936806
-0.17253 0.836408 -0.0618833
0.296776 -0.608979 -0.144625
-0.3485 -0.621975 0.0447639
-0.329503 -0.601423 -0.215439
-0.244979 -0.5615 -0.219132
0.38877 -0.100431 0.151697
0.760844 0.0025738 0.110818
0.38772 -0.222751 -0.327843
-0.448957 0.138197 -0.0178767
-0.461598 -0.159235 -0.10489
0.442001 -0.550139 -0.00400105
-0.514874 0.759223 -0.0798349
-0.35069 -0.0440963 0.249483
-0.214194 0.954235 0.0775507
0.448324 -0.564122 0.0453112
-0.631961 0.00321927 -0.0149322
-0.611643 0.086406 0.0538054
0.450142 -0.154078 -0.305916
-0.771821 0.146938 0.107168
-0.754783 0.045271 0.0150568
0.48174 0.0984017 -0.117492
-0.311616 -0.138354 -0.166437
0.225044 -0.424433 7.29909e-05
0.332063 -0.149363 0.294447
0.355779 -0.337982 0.117005
-0.512266 -0.254819 -0.306979
0.368464 -0.0800637 -0.269458
-0.590801 -0.236113 0.206223
-0.165284 -0.589632 -0.0878955
-0.58878 0.681506 0.019057
0.681941 -0.193476 -0.122283
-0.41907 -0.57286 -0.0335964
-0.421647 -0.243779 -0.171767
0.750018 0.220994 -0.0561606
-0.401163 -0.303131 -0.231209
0.565424 -0.186161 -0.207986
-0.456315 -0.0974554 -0.274453
-0.692187 3.76125e-05 0.0533339
0.233999 -0.447828 -0.284399
0.669075 -0.224115 0.0233585
-0.618552 -0.0591025 -0.152732
-0.747984 0.391946 0.0300892
-0.368633 -0.130862 -0.305521
-0.578013 -0.272516 0.2627
0.671965 0.600269 -0.0782922
0.548224 -0.51185 0.0445909
-0.578278 0.00626192 -0.162141
0.30061 -0.300611 0.308575
-0.0186454 0.966855 0.129616
0.487048 -0.384878 0.206905
0.131547 0.855134 -0.11496
-0.532779 0.713178 -0.105483
0.569384 -0.264316 0.22248
-0.525837 -0.386115 0.00514051
0.313803 0.807602 0.0636945
-0.524076 -0.0104814 -0.0832732
-0.491261 -0.0886084 -0.201425
-0.449036 0.774632 -0.128978
0.556884 -0.441584 0.194873
0.550841 0.04116 -0.146276
-0.195343 -0.42247 -0.270389
0.504193 -0.0393865 0.296144
-0.150247 -0.526372 0.0661646
-0.223343 -0.347302 0.16591
-0.56713 -0.0173619 0.265336
-0.243644 -0.298967 0.207131
-0.263841 -0.250877 -0.248193
0.242748 0.826813 -0.0427127
-0.723782 0.158238 -0.128875
-0.205419 -0.471252 -0.276531
0.648472 -0.273167 0.0276124
-0.714484 -0.0439204 0.0785286
-0.349012 -0.427296 0.000580423
0.2975 -0.447581 -0.0422986
0.150769 0.953889 -0.12958
-0.388373 -0.0585649 0.317226
-0.356297 -0.115915 -0.110761
-0.236404 0.927818 0.0197005
-0.416924 -0.265599 0.285225
0.325105 -0.441071 0.0124079
0.741208 -0.0969917 -0.106248
0.589089 -0.0309303 -0.206524
-0.491411 -0.0882517 0.0688913
-0.226457 0.823456 0.0840452
-0.312417 -0.294246 0.315662
0.783703 0.138963 0.0843786
-0.105123 0.961293 -0.0449388
-0.018591 0.971358 0.0342129
0.802994 0.188168 0.0906778
-0.31207 -0.515253 0.154167
0.492244 -0.582248 -0.113937
0.600748 -0.431417 -0.249942
-0.631217 -0.286801 0.16962
-0.450568 0.0148785 0.276732
0.553567 -0.543755 -0.0548512
0.675681 -0.199053 -0.257512
-0.566109 -0.44182 0.035185
-0.429755 -0.235052 -0.038139
-0.377557 0.0198722 0.119354
0.458126 -0.0451141 0.102981
-0.358971 -0.310853 0.316337
-0.451341 -0.183655 0.0801627
-0.331464 -0.434175 0.263057
0.648169 -0.0883022 0.139613
0.420142 -0.0829713 -0.281098
-0.49683 -0.075352 -0.110397
0.452351 -0.242171 0.293013
-0.172306 -0.468817 -0.0523714
0.37131 -0.435124 0.113189
0.692454 -0.168446 0.184361
0.33076 -0.645007 -0.0950929
0.614421 -0.35424 -0.196808
-0.425164 -0.245982 0.0656659
0.455714 -0.23416 0.186713
0.386561 -0.0809114 -0.0891971
0.588302 -0.230845 -0.252552
0.400895 -0.364684 0.245894
0.340036 -0.357286 0.297459
0.651712 -0.0798654 -0.062658
0.629735 -0.3624 0.270738
-0.641256 0.524755 -0.102995
0.468806 -0.202992 -0.0642076
0.00551107 0.853868 -0.0296341
-0.197147 -0.479039 0.19662
-0.567194 -0.273043 -0.00436072
-0.661592 0.600465 0.00608441
0.215465 0.946357 -0.083038
-0.628996 0.622006 0.0882971
0.417984 0.85629 -0.0661352
-0.362403 -0.395416 -0.107619
-0.508326 -0.252427 -0.22257
-0.473619 -0.130613 0.216911
-0.685931 -0.156528 0.0672105
-0.621007 -0.206065 0.0120608
0.599618 -0.389484 0.023967
0.474947 -0.397003 -0.214562
0.585615 0.075122 0.0959319
0.367533 -0.444118 0.243949
-0.33099 -0.0909988 -0.161163
-0.555809 -0.293622 -0.225149
0.654343 0.0187932 -0.0400997
-0.413444 -0.167073 -0.122307
0.407652 -0.568137 -0.196344
0.501178 0.759779 0.128526
0.501214 -0.14474 -0.293559
-0.390535 -0.272177 -0.329465
-0.189433 0.832349 0.0140147
-0.110419 0.976902 0.129616
-0.430061 -0.0438329 -0.00753654
-0.297186 -0.450697 -0.303978
0.55232 -0.00415016 0.205001
0.449605 0.753656 -0.0659496
-0.559056 -0.456858 -0.209693
0.45245 0.752371 0.0210323
0.497657 -0.134297 0.0678482
-0.303098 -0.536616 -0.167799
-0.502697 0.0531556 -0.144742
0.41696 -0.326435 -0.113919
0.219587 0.963242 0.0139166
-0.536536 -0.371271 0.243358
-0.558295 -0.460424 -0.0316386
-0.456296 -0.573474 0.00503746
-0.419754 -0.258864 0.130258
-0.311176 -0.138187 0.295987
0.480697 -0.588515 0.070188
-0.593897 -0.0579263 0.0050501
0.417832 -0.324359 0.129453
-0.589888 -0.185141 0.177186
-0.723088 0.414233 -0.0964985
-0.30893 0.908087 -0.12958
-0.717597 -0.081133 -0.0495047
-0.490062 -0.500733 0.0398977
0.755995 0.155864 0.131413
0.80122 0.215221 0.00429867
0.680898 -0.195959 -0.0368092
0.630447 -0.148704 -0.138844
0.658336 -0.294307 -0.106434
0.545503 -0.0203802 -0.133631
0.732706 0.061189 -0.0965267
0.779463 0.296118 0.0731276
0.296851 0.916891 -0.0217135
0.238365 -0.372452 -0.218329
0.736866 0.0860133 0.0633416
0.724944 0.543835 -0.0125166
-0.286787 -0.575453 0.0883652
0.647762 0.565882 -0.0492529
-0.618021 0.613283 -0.12958
-0.579261 0.632041 0.0868137
0.164749 0.841938 -0.0317854
0.306907 -0.224352 -0.177695
-0.163895 0.86203 -0.12688
0.767185 0.0404018 0.0423959
0.211921 -0.593304 0.00807234
-0.641285 -0.157229 0.00296788
0.366241 -0.0679855 0.19595
-0.263749 0.917917 -0.0812367
0.758466 0.38055 0.0748103
0.52618 -0.317893 -0.226728
-0.569732 -0.101006 0.0819572
0.66439 0.553299 -0.126102
0.402576 -0.0178878 0.295186
-0.414423 -0.478263 0.138432
-0.197293 0.941977 -0.0193543
-0.546523 -0.360959 -0.0874688
0.289756 -0.632741 -0.0378162
0.456629 -0.456626 -0.167695
-0.420628 -0.0677609 -0.268492
-0.553538 -0.37628 -0.139958
-0.468467 0.795451 0.129616
0.284647 -0.262256 0.181338
-0.452857 0.834351 -0.0836309
-0.404235 -0.0601047 0.125013
-0.143747 -0.556794 0.0254475
0.448408 -0.251035 -0.187628
-0.464851 -0.151491 -0.174078
-0.733539 0.428103 0.129616
0.778796 0.390176 -0.0878916
0.320998 -0.554917 -0.10394
-0.215128 0.89403 0.129616
-0.398599 -0.557176 0.153163
0.415339 -0.590554 -0.112112
0.776047 -0.00846819 0.0666963
0.361983 -0.355344 -0.154147
0.36226 -0.633292 -0.0111605
0.43061 0.868681 -0.0150275
-0.561933 -0.407137 -0.0355017
-0.766549 0.282281 -0.0681144
-0.253663 -0.286419 -0.182464
-0.372611 0.00809917 0.229113
-0.439636 -0.417504 0.202524
0.495109 -0.571489 0.138893
-0.640864 -0.161506 -0.241063
0.646022 -0.182659 -0.226002
-0.29328 -0.348069 -0.328607
0.573092 -0.497266 -0.082965
0.338803 0.92008 0.0711494
0.189877 -0.517124 0.121718
0.578038 -0.485487 0.194424
-0.392554 -0.212388 -0.143975
0.636248 -0.346892 0.0561141
-0.446091 -0.158248 -0.300599
0.726369 -0.132321 -0.208615
-0.642852 -0.147872 0.232734
0.487161 -0.0972348 -0.0691604
0.324562 -0.168305 -0.285913
-0.459393 -0.554943 -0.101266
-0.580101 -0.375036 0.16714
-0.440626 -0.297898 -0.331284
0.439209 -0.152151 0.332764
0.664711 -0.138166 -0.179564
-0.593525 -0.376542 0.240476
0.648289 -0.0312608 -0.124532
0.0288928 0.853673 -0.0718229
0.77752 0.322022 -0.0557581
-0.534619 -0.228335 0.212263
0.592777 -0.450399 0.0952748
0.75302 0.33869 0.129548
0.0282279 0.917318 -0.12958
0.294563 0.896034 0.129616
0.255841 -0.488545 0.201291
-0.292944 -0.187345 0.185585
0.708958 0.571199 -0.0502717
0.310155 -0.201525 0.27808
-0.638669 0.529233 -0.0550456
0.801195 0.141588 0.0123534
0.28258 0.886965 -0.12958
-0.325892 -0.389237 0.28616
-0.435099 -0.222328 0.2875
-0.540845 -0.41727 -0.106709
-0.71227 0.119865 -0.0667088
-0.460734 -0.47366 0.222853
-0.747246 0.320114 -0.12958
0.381177 -0.411634 0.0333914
-0.297046 -0.334822 0.113056
-0.431161 0.134916 0.023969
-0.26768 -0.241736 0.283657
0.675945 0.627697 0.129616
0.770131 0.178118 -0.132493
0.70098 0.453166 0.0147108
-0.754877 0.147584 -0.0950899
-0.111568 0.845201 -0.0538431
0.469892 -0.235549 -0.322849
0.754051 0.0981722 0.144667
0.722535 -0.0634176 -0.190731
-0.313925 -0.510837 0.0322123
0.402242 -0.360102 0.153532
-0.768718 0.249226 -0.0295544
-0.436041 -0.220084 0.189396
-0.414272 -0.0255615 0.0801656
-0.226159 -0.431531 -0.0481292
0.521013 -0.391052 0.240263
0.380944 -0.412187 -0.0511942
-0.412381 -0.579792 -0.0804716
-0.546341 0.0995895 -0.0305654
-0.336304 -0.457552 -0.181925
0.706862 -0.128643 0.00987168
0.723669 0.546014 0.0861119
0.52162 -0.0772456 0.25159
-0.477345 -0.5122 0.141797
0.305371 -0.59212 -0.0121938
0.43054 -0.426044 0.283695
0.308143 -0.206315 0.211474
0.751614 0.204217 0.0416533
-0.419307 0.0436175 -0.192958
0.537498 -0.0394371 -0.0490381
-0.414091 -0.346582 -0.333106
-0.70645 -0.107677 -0.153057
-0.708914 0.326674 0.0343966
0.598739 -0.391577 -0.0429489
-0.379742 0.019774 0.0191386
0.601935 -0.428591 -0.144579
-0.20597 -0.534528 0.143681
0.272197 -0.344988 -0.319984
0.626656 -0.0482374 0.215404
-0.645067 -0.253824 0.0846479
-0.465727 -0.539861 0.0986353
0.632183 0.657982 -0.12958
0.468769 -0.142582 -0.109041
0.556216 -0.230424 0.310054
-0.73123 -0.0486759 -0.15857
-0.524059 -0.541939 -0.194365
0.618758 0.616071 -0.043643
0.591414 -0.409019 0.209869
0.747259 -0.0379624 0.131229
0.527354 -0.555756 0.178624
0.320481 -0.47258 0.232191
-0.768938 0.245869 0.0857415
0.136151 0.903648 -0.12958
-0.495762 -0.508908 -0.00562736
0.622364 0.678022 0.0638033
0.356439 -0.155928 -0.13709
0.665383 0.645795 0.085445
-0.366093 -0.542621 0.198791
-0.0588978 0.852577 -0.101942
0.692211 0.481953 0.0999418
0.651295 -0.266445 0.170953
-0.574944 -0.306112 0.294461
-0.705628 0.358641 0.124265
-0.689729 0.390386 -0.0204663
0.227075 0.830578 0.0427682
0.697735 -0.129715 0.0880697
0.262325 -0.582982 -0.179732
-0.503978 -0.0583326 0.27758
0.463404 -0.139982 0.154168
0.34386 -0.121274 -0.210283
-0.660815 0.567535 -0.0951133
-0.442918 -0.106221 0.140304
0.562263 -0.523048 -0.186345
0.270417 -0.513161 -0.257995
0.475542 -0.380724 -0.316331
-0.630918 -0.242889 0.233259
-0.624859 -0.0828828 0.0602445
-0.10993 0.893983 0.129616
-0.170948 -0.472051 -0.00816452
-0.460684 -0.410415 0.283224
0.740582 0.51499 0.0565292
-0.624435 -0.0838977 0.152689
-0.32851 -0.476111 -0.0495999
-0.617335 -0.319853 -0.293886
-0.440781 -0.521166 -0.173567
0.130142 0.9793 -0.0154756
0.573817 0.672653 0.0162039
0.63739 -0.324067 -0.295348
0.740508 0.313757 -0.00344598
0.591923 -0.452428 -0.0654684
-0.456212 -0.324742 0.319797
-0.385816 0.85753 -0.0237083
0.520258 0.785394 -0.039425
0.467129 -0.206983 0.0932169
0.195156 -0.483354 -0.223017
0.471113 -0.323816 -0.33207
-0.392424 0.0552738 0.0765747
-0.461998 -0.421565 0.0298511
0.584204 0.106165 0.0508881
-0.603361 -0.100696 -0.0295165
0.707124 0.44478 -0.121324
-0.056836 0.984305 0.116059
0.570809 0.686886 -0.125744
0.765171 0.0283867 -0.0319419
0.60791 -0.369745 -0.140227
0.275859 -0.283179 0.263184
-0.436554 -0.218866 -0.123769
0.427719 -0.300819 0.291949
-0.525067 0.109816 0.123116
-0.51883 -0.0675928 -0.24289
0.457285 -0.542789 0.149593
0.680302 0.620255 0.00943424
-0.533758 0.0125747 0.0798497
-0.318704 0.812945 0.122722
-0.42076 -0.256469 0.00778557
0.568264 0.678492 -0.0751669
0.782515 0.348522 -0.00104686
0.732384 0.48274 -0.0382537
0.339665 -0.278093 0.140815
0.440885 -0.269469 -0.0464892
-0.718934 0.486827 -0.111576
-0.466418 -0.571636 -0.141705
0.666138 -0.275729 -0.205072
0.611684 0.058332 0.180119
-0.740416 0.0612979 -0.062937
-0.625443 -0.0814956 -0.100577
0.179625 0.973545 0.0373459
-0.499817 0.717202 0.112171
-0.738889 -0.0304384 -0.0923224
-0.400393 -0.143585 0.331849
0.54377 0.712798 0.116188
0.601011 -0.294224 0.224498
0.179547 -0.512494 0.00192385
-0.693197 0.511861 0.0118965
-0.543295 -0.224532 0.0649144
-0.462782 -0.156419 0.148399
-0.433417 -0.0986793 -0.0740539
0.581869 0.066206 0.00291344
-0.606736 -0.126038 -0.18521
0.718166 -0.151852 0.0476861
-0.70209 0.350013 -0.0703512
-0.7039 0.0699213 0.108618
-0.615119 -0.325129 -0.180051
-0.165951 -0.483946 0.0917928
-0.735993 0.349156 0.0782807
0.653729 -0.0750614 0.0740803
-0.695195 0.0179912 -0.0585257
-0.721431 0.478669 0.0607607
0.645549 0.00621526 0.143871
0.556438 0.690928 0.0626281
-0.434421 0.0612493 0.245888
0.579545 -0.281136 -0.223967
0.488995 -0.268735 0.331133
-0.605056 -0.276492 -0.0249574
-0.356299 -0.409948 -0.289935
0.320542 -0.393165 -0.136405
0.527274 -0.376149 -0.26601
0.421574 -0.313851 0.175073
-0.581747 0.713977 -0.12182
-0.52268 -0.545225 0.198092
-0.336495 -0.457098 0.214526
0.603534 -0.194574 -0.228712
-0.518464 -0.0238428 -0.00414297
-0.275398 -0.602567 -0.081086
-0.519014 -0.553949 0.12587
-0.69443 -0.136295 -0.205184
0.711753 -0.0789322 0.198207
0.667835 0.641595 -0.0897736
0.550041 -0.303596 -0.299559
-0.360601 -0.399701 -0.20981
-0.451452 0.835271 0.038527
0.267679 0.945831 -0.0766873
0.481889 -0.484208 0.227137
-0.640704 -0.118044 0.0412061
-0.736423 0.0374748 -0.0230297
0.771136 0.0639818 -0.119411
0.472476 -0.518614 0.0479232
-0.467962 -0.401982 -0.0619698
0.518139 0.769018 -0.12958
-0.420822 -0.189646 0.162883
0.636229 -0.0664943 0.0155477
0.690531 -0.0766886 -0.0446899
-0.712959 0.287194 -0.0281945
-0.496834 -0.606761 -0.0543574
-0.572945 0.097311 0.0854907
0.173745 0.847864 -0.113229
-0.410545 -0.452963 -0.306039
-0.599453 -0.36243 0.030656
-0.209526 0.827522 -0.0234759
-0.618519 0.564102 0.0810483
0.573238 -0.175643 0.301724
-0.66062 -0.0758351 -0.17728
0.360148 -0.534511 0.199766
0.358373 -0.465928 -0.0863071
-0.486411 -0.412521 0.241867
-0.158201 0.968371 0.129616
-0.329011 -0.592007 -0.110169
-0.556574 -0.419898 0.239351
-0.492609 -0.347972 0.0677947
-0.311978 0.900455 0.0321559
-0.488271 -0.203954 0.333484
0.552987 0.776051 -0.073283
-0.582633 -0.132596 -0.0501861
0.697012 -0.0612576 0.0529898
-0.497796 -0.390819 -0.234263
0.750107 0.40666 0.129616
-0.40552 -0.292756 -0.0681805
-0.63617 0.609726 -0.0912521
0.40798 -0.533618 0.200597
-0.539387 -0.415897 0.078408
0.407575 -0.34878 -0.0577257
0.378171 -0.585015 0.13775
0.685012 -0.230791 -0.142231
0.653165 -0.125886 -0.0876019
0.585725 -0.422564 0.259775
0.781006 0.122871 -0.0441504
-0.135937 0.957709 0.0475383
0.433932 -0.478045 -0.283182
0.640707 0.578089 -0.00467276
-0.6626 0.564481 0.0923906
-0.493823 0.761577 0.129616
0.658779 -0.152288 0.20438
0.631892 -0.0964454 -0.201428
0.133823 0.961475 -0.0715925
-0.710567 0.109703 0.0801568
-0.724723 0.164198 0.127958
0.745218 -0.0874448 0.0782525
-0.743254 0.0782366 0.0387817
0.680877 0.585013 0.0465954
-0.491304 -0.407969 -0.00829964
-0.64352 -0.188898 0.180104
0.638234 -0.0898595 0.196361
0.455743 -0.234096 -0.274486
-0.307996 -0.145743 -0.23446
-0.525409 -0.161942 0.319904
-0.430575 -0.289412 0.319364
0.657423 -0.020003 0.10641
0.45061 -0.246315 0.0871627
-0.493258 -0.245698 0.327129
-0.624039 0.571407 -0.126347
-0.534547 -0.422997 -0.204786
0.198295 -0.595099 -0.0433309
0.345248 -0.18265 -0.319614
0.724772 -0.136127 -0.132576
-0.0209794 0.988476 -0.074678
-0.624878 -0.212398 -0.0950209
-0.768785 0.248186 0.0437996
0.40127 -0.199205 0.332108
0.25131 -0.564651 0.116404
-0.510194 -0.0435315 0.235251
-0.517843 -0.51419 -0.102324
-0.532645 -0.329907 0.227179
-0.396098 0.0622622 0.214577
-0.415848 -0.219713 0.329766
0.482031 0.835068 -0.101586
0.643296 -0.285491 0.262113
-0.333406 -0.199425 0.158787
0.469004 0.0439383 0.259105
-0.63016 -0.289314 0.103116
-0.243423 -0.299493 0.165338
0.460228 0.828676 -0.00293952
-0.607347 -0.218672 0.267483
-0.590478 -0.0448575 0.239265
0.774053 0.0813794 -0.0542563
-0.571651 -0.163259 0.276169
0.365968 0.910245 0.0261785
0.526937 -0.562534 0.0123709
-0.637945 -0.129821 0.162463
-0.744585 0.358823 -0.0129618
0.411297 -0.00458566 -0.231989
-0.562253 -0.290961 0.224534
-0.668478 0.463025 0.115735
0.19864 -0.467034 0.0518233
-0.771792 0.202373 -0.0321946
-0.35519 -0.625181 -0.0291831
-0.557297 -0.364506 0.294763
-0.177999 0.967339 0.09297
0.329446 -0.534801 -0.239106
0.443923 0.859978 0.0752993
0.641489 0.057498 0.139873
-0.716998 0.247815 0.010558
-0.764013 0.320913 0.0900751
0.37809 0.903012 -0.0735192
-0.526915 -0.401283 0.21189
-0.455251 -0.604296 -0.0225515
0.344194 -0.499689 -0.221524
0.686173 -0.0870657 -0.165821
0.51632 -0.491474 0.163157
-0.529914 0.743407 0.0112093
-0.627991 -0.24986 0.187942
0.630311 -0.316408 -0.201906
0.165422 0.924473 0.129616
-0.338077 -0.0741262 -0.244933
-0.684566 0.546019 0.129616
0.454596 -0.236822 0.045074
-0.502703 -0.473423 -0.181405
0.50521 -0.116316 0.128625
0.735478 0.00569227 -0.166699
0.724392 0.0115793 -0.00092632
-0.609144 -0.249495 0.104543
0.522035 -0.045886 0.0841327
-0.734375 0.436393 -0.0496787
-0.526976 -0.295293 0.0150529
-0.217188 -0.388079 0.251031
-0.481236 -0.538252 0.0252074
0.793586 0.331541 -0.101594
-0.711336 -0.096043 0.0469045
-0.280979 -0.210073 0.217825
-0.738268 0.356768 -0.0889143
-0.706624 0.0861776 -0.126653
-0.303935 -0.420097 0.0464398
-0.5848 -0.39732 -0.265288
0.668609 -0.225222 -0.0629827
0.567453 0.0318843 0.128978
-0.633226 -0.158623 -0.134082
-0.452287 -0.181405 -0.202009
-0.280542 -0.590321 0.01014
-0.624401 -0.303031 0.249587
0.737863 0.0919577 -0.00229891
0.56131 -0.448392 -0.269608
-0.651257 0.507451 0.0477065
0.592775 -0.4504 -0.21451
0.562229 -0.523127 0.10035
0.232212 0.92059 -0.12958
-0.572433 -0.404451 -0.192399
-0.191727 -0.422576 0.164182
-0.527691 0.689327 -0.0350176
0.228508 -0.395922 0.10003
-0.0334377 0.895272 -0.12958
-0.585384 -0.322391 0.24013
-0.538609 -0.288242 0.271338
-0.510053 -0.441494 -0.0950209
-0.458069 -0.0723502 0.314247
0.465847 -0.069606 -0.266511
0.464128 -0.283325 -0.330926
0.264316 -0.373736 0.0711815
0.739249 0.348297 -0.124405
-0.571857 -0.318201 -0.146849
-0.256654 -0.277065 -0.309104
-0.263313 -0.330345 0.299363
0.213931 0.925993 0.129616
-0.340292 -0.558841 -0.254985
0.416973 0.0501062 0.230491
-0.51145 -0.339141 0.298248
-0.468381 -0.143086 0.064618
0.39435 0.871739 0.0324466
0.591218 -0.328234 -0.217729
-0.223335 -0.413172 -0.105372
-0.519629 -0.443233 -0.269528
-0.445316 -0.430127 -0.195264
0.498783 -0.0175816 -0.224279
-0.58503 -0.352146 -0.256966
0.226623 -0.460771 0.207697
0.560884 -0.340372 0.225804
-0.480744 -0.0455817 0.0544052
0.61953 -0.377682 0.224266
-0.348249 -0.122088 0.157822
0.705182 0.439365 0.072313
0.376613 -0.422497 0.0751554
-0.391479 -0.326185 -0.0503183
0.437929 -0.207729 0.161854
0.206192 -0.449362 -0.0442816
0.300727 0.933866 0.0509659
0.65019 -0.313701 0.122297
-0.254496 -0.487929 -0.27932
-0.672321 -0.131218 -0.0868388
-0.408772 -0.241738 0.166072
0.376312 -0.614161 -0.135587
0.386622 0.876791 0.1109
-0.606606 0.660336 -0.0936853
-0.200929 0.959038 -0.0557076
0.525429 -0.387405 -0.21206
0.756155 -0.0167805 0.021389
-0.229607 -0.399235 -0.311285
-0.711694 0.451452 0.0197783
0.622728 -0.334462 -0.114255
-0.6675 -0.200411 0.0700947
