ply
format ascii 1.0
comment Created by Open3D
element vertex 1652
property double x
property double y
property double z
end_header
-0.603403 -0.166392 -0.0869405
-0.575649 -0.621869 0.0241206
-0.388163 -0.0594097 0.118409
-0.319116 0.915022 0.0494034
-0.288755 -0.642109 0.17786
0.559371 -0.412486 0.289268
-0.409356 -0.281925 0.140143
0.6438 0.342386 -0.124816
0.480925 -0.301147 -0.00140044
0.615345 -0.0950394 -0.0600525
-0.612648 -0.412035 -0.0839918
-0.678325 -0.0395625 0.0752819
0.559874 -0.169936 0.182591
0.444121 -0.250474 -0.303907
-0.695211 0.284989 -0.0590409
-0.375763 -0.362039 0.332657
-0.562253 -0.697837 -0.0826324
0.389555 -0.523752 0.298639
0.54015 -0.494878 0.181747
0.561182 0.708231 -0.013827
-0.62913 0.448591 -0.0466452
-0.417058 -0.229045 0.297762
-0.521017 -0.287938 -0.292355
0.034791 0.948795 -0.0621619
0.584567 -0.24708 0.123667
-0.463249 -0.405016 0.0975501
0.418563 -0.273884 0.13303
0.632857 -0.293804 0.220068
0.188657 0.949798 0.0490492
0.307047 -0.497499 -0.302739
-0.125311 0.936898 0.0486024
-0.636743 0.0609177 -0.0725737
-0.561818 -0.0978732 -0.0295755
0.639209 0.161299 -0.0437317
0.360609 -0.637827 -0.200484
-0.692502 0.197388 0.0469281
-0.585914 -0.563648 0.123399
0.695332 0.309524 0.029919
-0.692594 0.200359 -0.05068
-0.565602 -0.177224 -0.186379
-0.581332 0.680462 -0.0950132
0.591277 -0.52961 0.0188477
-0.442463 -0.227892 0.070026
0.409958 -0.375324 0.169425
-0.523176 0.755956 0.0759787
-0.452508 -0.701811 -0.0330273
0.571086 -0.319435 -0.203592
-0.355991 -0.69242 0.0939196
-0.355147 -0.666525 -0.154503
-0.450272 -0.0629817 -0.0959429
-0.529874 -0.556776 0.185171
0.139757 0.933892 -0.104053
0.287874 0.881438 -0.0493429
0.483718 -0.650411 0.13265
-0.628741 -0.32077 0.0859224
-0.372975 -0.594817 0.2501
-0.632584 0.430969 0.0430242
0.614791 -0.196549 0.0528191
-0.376617 -0.0979083 -0.0460272
-0.467241 -0.568671 -0.255727
0.366164 -0.153567 -0.130065
0.289799 0.880408 0.0920261
0.376176 0.881695 -0.0585952
-0.447939 -0.491837 -0.129807
-0.441138 -0.151747 0.241579
0.522292 0.756239 0.0825366
0.367812 -0.698689 0.0789571
0.437524 -0.421198 -0.329209
-0.293732 -0.567977 -0.101803
-0.343919 -0.698534 -0.057473
-0.00637754 0.949127 0.0559688
0.326793 -0.376855 0.286498
-0.297562 -0.695326 0.0136865
0.400128 0.809857 0.0647329
-0.496123 0.716619 -0.0513406
0.582738 -0.578042 0.184215
-0.356689 -0.518186 0.0836333
-0.634923 -0.285706 0.223239
0.454325 -0.452001 -0.0510672
0.384315 -0.0506253 -0.0909603
-0.39977 0.810678 0.0455091
0.530223 -0.562135 -0.123398
0.49081 -0.553935 -0.254105
0.292065 -0.573807 -0.157451
-0.597084 0.6558 0.0575963
-0.681208 -0.0232066 -0.0485046
-0.620593 -0.0688992 0.019603
-0.455076 -0.451365 -0.0644819
0.550049 -0.33383 0.272979
-0.37154 -0.126707 0.0848279
0.653974 0.537176 -0.0535393
-0.516837 -0.657326 -0.135987
-0.629609 -0.177449 0.146067
0.314702 -0.44543 -0.245493
0.581385 -0.120688 0.00354272
0.343164 -0.284008 -0.205439
-0.607356 -0.442048 0.118923
0.68496 0.00169434 0.0705845
-0.531167 -0.264376 0.282304
0.425603 -0.25896 0.31011
0.446049 -0.621232 0.210142
0.281422 -0.634169 0.080608
-0.0805516 0.944342 -0.0799337
0.392322 -0.433714 -0.157536
-0.363156 -0.393672 0.167787
-0.639178 -0.261573 -0.233436
0.363324 -0.169679 0.192845
-0.580156 -0.595038 -0.138817
0.610538 -0.420377 0.166182
-0.64205 0.232504 0.119178
0.288818 -0.613487 0.216451
0.475197 0.779922 -0.0654329
-0.605619 -0.451901 -0.0143152
-0.500944 -0.377528 0.307956
-0.569402 -0.470661 -0.294666
0.316612 -0.434596 0.227501
-0.611188 0.512084 0.0410148
-0.517433 -0.656455 0.162123
0.641032 0.22023 0.0553327
-0.368665 -0.143008 -0.177015
0.638004 0.122307 0.123607
-0.353535 0.843824 -0.0722589
0.602016 0.645877 0.116346
-0.6883 0.0615176 -0.0190467
-0.620301 -0.368631 -0.216921
0.636022 -0.275847 -0.0719387
0.639585 0.571256 0.0553859
0.417464 -0.147873 0.241764
0.481019 -0.401606 0.313357
-0.629783 -0.314853 -0.0582048
0.600716 -0.476084 -0.230723
-0.638587 0.120523 0.0612396
0.692044 0.203229 -0.0756702
-0.62033 -0.368464 0.237661
-0.644613 0.561177 0.122824
0.622291 0.473018 0.0514937
0.571656 0.602083 -0.00349706
0.347333 -0.260369 0.275785
-0.645372 -0.226447 -0.110542
0.602519 -0.190927 -0.207807
-0.363358 -0.281983 -0.143606
-0.695549 0.3127 -0.125744
-0.625427 -0.0414815 -0.0905487
-0.301858 -0.521889 -0.196011
0.590696 -0.532913 -0.170157
-0.49842 -0.665643 0.0563241
-0.285833 -0.612775 0.0580718
0.513341 -0.155083 -0.201956
0.567616 -0.6638 0.16165
-0.624983 -0.0440025 0.124518
-0.449053 -0.485522 0.0678858
0.454568 -0.0644783 -0.0982459
-0.592364 0.560049 -0.076534
0.448731 -0.483728 0.0712919
0.435993 -0.14428 -0.233246
0.688335 0.083305 0.0488524
0.406065 -0.242154 -0.10185
0.634815 0.416333 0.107296
0.610368 -0.123266 0.0845609
0.399006 -0.490546 -0.311498
-0.607282 -0.442466 -0.158289
0.52985 -0.490744 -0.255895
-0.494112 -0.490622 0.294544
0.56795 -0.363832 -0.260415
-0.638701 -0.264282 0.032655
0.631027 -0.00610814 0.119648
0.616335 0.611024 -0.125744
0.51386 -0.643972 0.0448262
-0.523914 0.681423 0.0646403
-0.421359 -0.489748 0.315007
-0.367157 -0.151562 -0.100457
0.505101 0.704859 -0.0878585
0.517157 -0.272415 0.282873
0.641976 0.361481 -0.024142
-0.35071 -0.244836 0.261572
0.56278 -0.482286 0.293081
0.0438743 0.99069 0.018152
0.361664 -0.493335 -0.115909
-0.614118 0.623939 0.123815
-0.683368 0.433743 -0.00568835
0.441417 -0.08365 0.151242
0.087365 0.962297 0.123815
-0.432561 0.819603 -0.0169639
0.682915 0.432871 0.0470302
0.575093 -0.296712 0.171337
0.359965 -0.485196 0.12539
0.529269 0.672413 0.0362823
0.589516 -0.5396 0.0954609
-0.644433 0.309551 0.0511458
0.359127 -0.193474 -0.0742268
-0.655326 -0.169997 -0.0321998
-0.421074 -0.0443642 -0.0263705
0.412722 -0.348288 0.331605
-0.600452 -0.403953 -0.300949
0.690263 0.145631 -0.00108451
0.482605 -0.291615 -0.0817782
0.672964 0.477864 -0.0812155
-0.59835 -0.15857 0.0885318
-0.644431 0.342474 -0.0839929
0.626433 -0.116424 -0.148809
-0.694686 0.353319 0.123815
-0.519122 -0.0881379 0.130966
-0.679736 0.450869 -0.098816
0.543964 -0.60192 -0.228172
-0.449881 -0.172817 -0.256581
0.383503 -0.293079 -0.147683
-0.333596 -0.341897 0.283861
-0.635805 0.581403 0.018201
0.46281 -0.403875 0.113205
-0.419787 -0.20967 -0.0152726
0.582821 -0.577569 -0.0275278
-0.679125 0.0955826 0.123814
0.669848 -0.0840138 -0.0185712
0.578603 -0.60149 -0.0991479
-0.513611 -0.649013 -0.0128898
0.576844 -0.611466 0.10235
0.384562 -0.0492329 0.0182573
-0.205968 0.915748 -0.0290639
0.420254 -0.645229 -0.172328
-0.326931 -0.379693 -0.168101
-0.53545 0.664084 -0.0424509
-0.696138 0.314956 -1.33333e-05
0.462683 0.792475 0.0518724
0.427901 -0.474269 0.320005
0.6418 0.245065 -0.0426786
0.321939 -0.545053 0.280129
0.350075 0.897871 0.060929
-0.606432 -0.447287 0.226603
0.257137 0.895604 -0.106198
-0.467803 -0.37918 -0.059793
0.570195 0.695403 -0.119848
-0.461432 -0.232367 -0.0704505
-0.470913 -0.361548 0.0263577
-0.640763 0.19088 -0.0893148
0.359731 -0.297779 0.153907
-0.5671 -0.372276 0.277568
-0.514061 0.766488 -0.00802856
-0.485737 -0.277478 0.0352164
0.47665 -0.32539 0.0616321
-0.655711 -0.167811 -0.136951
0.378806 0.880065 -0.123653
-0.49867 0.719317 0.123815
0.388391 0.819517 -0.0281831
-0.68726 0.415393 0.0818537
0.631367 0.433922 -0.0576208
0.57792 0.590301 0.0619906
-0.564595 -0.228653 0.22267
0.620643 -0.363069 0.224614
-0.5827 -0.283802 -0.273138
0.291651 -0.576157 0.160835
-0.417575 -0.664041 -0.171185
0.252276 0.944767 -0.0448965
0.643477 -0.233574 0.0972299
0.568842 -0.656849 -0.0333262
-0.387559 0.875036 0.0578473
-0.309299 -0.479689 -0.271819
-0.568977 -0.335015 0.211499
-0.267741 0.939303 -0.0602802
0.626832 -0.0298964 -0.10436
-0.688959 0.0828337 -0.103404
0.598928 -0.28383 0.275405
-0.558962 -0.391811 -0.245246
-0.327459 -0.3767 -0.276461
0.635431 0.0391026 -0.0444518
0.331524 -0.350027 -0.31662
0.624986 -0.200045 -0.147219
0.639702 0.0978398 -0.125744
0.63725 0.0979409 -0.0198839
-0.573461 -0.634275 0.119044
-0.543187 -0.481281 0.240931
0.352643 -0.539234 -0.00803388
0.422219 -0.196981 -0.277337
-0.18232 0.967902 0.0453378
-0.0547518 0.990173 0.0751564
0.641021 -0.247505 0.169373
0.290407 -0.583213 -0.042351
0.38242 -0.0613754 0.0898519
0.470868 -0.358176 -0.116845
0.553904 -0.416875 -0.228955
-0.160595 0.92954 -0.0872894
-0.475728 -0.334241 -0.121481
-0.547977 -0.48141 -0.189124
-0.598649 -0.491428 0.289805
-0.405804 0.862469 -0.106898
0.438142 -0.543778 0.0557762
-0.574828 -0.246043 -0.220352
0.452508 0.811092 -0.125744
0.516262 -0.611705 -0.160632
-0.6332 -0.29548 -0.1764
0.635989 0.530286 0.123815
-0.508594 -0.147846 -0.219776
-0.588686 -0.223241 0.133268
-0.356058 -0.252234 0.124264
0.366752 -0.150235 0.118349
-0.592408 -0.526823 -0.177097
0.566688 0.700395 0.0780253
0.673645 -0.0624775 0.0704813
0.597447 -0.473157 -0.295103
0.616556 -0.386247 -0.292646
0.319753 -0.685305 -0.0952397
-0.310927 -0.470455 0.272041
-0.321719 0.863649 0.00931028
-0.267144 0.939524 -0.123916
-0.612508 0.50769 0.122547
0.69535 0.310107 -0.111371
-0.649323 0.550362 -0.0997585
0.514487 -0.562953 0.221166
0.431675 -0.225472 0.0685793
-0.383068 -0.563393 -0.273461
-0.629561 0.595742 -0.0419414
-0.561906 0.621622 -0.0915252
-0.609489 -0.131874 -0.00908697
-0.635639 0.415387 -0.124201
-0.444374 -0.51206 -0.0107592
-0.456942 0.759598 -0.103522
0.695173 0.304398 0.110748
0.306708 -0.490761 0.181341
-0.377492 -0.504478 -0.106531
-0.521779 -0.520398 -0.248243
0.284509 -0.616664 0.00915817
-0.638746 0.125672 -0.0697655
0.624386 -0.341843 -0.224691
0.39891 -0.349905 -0.165541
0.303765 -0.507448 -0.237591
-0.634592 -0.287578 0.146688
0.642875 0.279812 0.0411999
0.632934 0.425929 0.00303532
-0.458395 -0.432542 0.158267
-0.385597 -0.544957 -0.00755945
0.592862 0.557284 -0.0697953
-0.529591 -0.558382 -0.12764
0.659789 -0.141058 -0.0486408
-0.694611 0.265596 0.0519745
-0.437754 -0.694363 0.0285383
-0.373973 -0.123676 0.225597
-0.460173 0.756356 0.0798219
-0.611677 -0.417543 0.0636245
-0.598529 -0.204224 -0.0306637
0.506884 -0.397365 -0.305571
-0.318715 -0.613919 0.2222
-0.614612 -0.102821 0.105409
-0.423551 0.827017 0.0986564
-0.644212 0.302382 -0.0317604
0.567959 -0.661852 -0.15689
0.643769 0.3427 0.0970012
-0.651514 0.0137337 0.0675124
0.691564 0.187699 0.0534318
-0.369725 -0.394691 -0.330221
-0.499927 -0.566921 0.236079
-0.306328 -0.496542 0.200987
-0.412737 -0.0861359 0.166039
-0.389076 -0.420336 0.329754
0.594912 -0.268977 -0.161636
-0.591368 0.66598 -0.0212103
0.69243 0.237464 0.123814
0.625186 -0.0392317 -0.0414319
-0.514028 -0.699251 -0.0475803
0.0724248 0.945082 -0.00875402
0.600367 -0.179984 -0.0916496
0.560796 -0.112929 -0.108529
-0.694748 0.356073 -0.0552306
-0.371743 -0.125551 0.0253482
-0.581974 -0.585998 0.243254
0.0125601 0.949771 -0.125744
-0.56907 -0.659179 -0.03162
0.594751 0.658817 -0.0442518
-0.495883 0.716913 0.0261651
0.526437 0.751451 -0.0349782
0.127839 0.980549 0.0593366
-0.613058 -0.409706 0.296969
0.616913 0.490908 -0.0502928
0.645147 -0.224104 0.01009
-0.00190242 0.992841 -0.0477122
0.613238 -0.122265 0.15287
0.228281 0.907583 0.0377353
0.484666 -0.279926 0.108393
-0.686656 0.00834267 0.123113
-0.360455 -0.189573 0.142557
-0.302325 -0.537289 0.282811
0.187847 0.966314 -0.0806772
0.441641 -0.52394 -0.0526479
0.508195 -0.279909 -0.284542
0.646194 -0.218165 -0.0734524
-0.337113 -0.321948 -0.258111
-0.431484 -0.344227 0.33095
0.44613 -0.21412 0.0112399
-0.640478 0.181674 0.0254726
0.201227 0.916995 0.112577
-0.235849 0.951055 0.0855203
0.513693 -0.671541 -0.0582867
0.300374 -0.615873 -0.214267
-0.536694 -0.323456 0.286759
-0.644931 0.325626 0.11158
0.666555 0.39579 -0.116705
0.178479 0.968727 -0.00497458
-0.674904 -0.0589671 -0.115567
0.547135 -0.198958 -0.223477
0.533273 -0.53388 -0.198956
0.533718 -0.188037 0.231192
-0.600774 -0.254516 0.26003
0.660621 0.516414 0.0555805
0.311857 -0.686319 0.0881531
-0.586598 -0.559774 -0.0931835
-0.522163 -0.600508 0.030036
-0.655324 -0.170006 0.0921719
-0.328124 0.891674 0.10205
0.629034 -0.251668 -0.253188
-0.429059 -0.387153 -0.16755
0.403787 0.863529 0.0436582
-0.637501 0.0853782 0.0154459
0.479532 -0.683981 0.0132961
0.591951 -0.525796 0.161613
-0.424697 -0.252208 -0.110218
-0.106775 0.983857 0.0209071
-0.465476 -0.314086 0.152789
0.370436 -0.640618 0.200959
-0.412129 -0.0932768 -0.175483
-0.692867 0.209171 -0.117513
0.401371 0.833118 0.123815
0.41341 -0.69688 -0.000640935
-0.675799 -0.0538846 0.0183956
0.521628 -0.602657 -0.00132066
-0.643109 -0.239284 -0.168905
-0.460499 -0.262529 0.116268
-0.441956 -0.525769 -0.288809
-0.629678 0.445793 0.0981681
-0.565113 -0.138805 -0.143642
-0.523281 -0.0645507 0.0419477
-0.282757 -0.630218 0.120396
-0.25868 0.895229 0.0676667
0.637098 0.576969 -0.00763072
0.605138 -0.451003 0.0453612
0.415566 -0.679462 0.103569
0.548245 -0.448966 0.225732
-0.358287 -0.201864 -0.277011
0.612098 -0.411531 0.253371
-0.598 0.546351 -0.00573515
-0.21372 0.958829 -0.125744
-0.52903 -0.58818 -0.21975
-0.610667 -0.42327 0.173965
0.635164 0.0304821 0.0764318
0.623999 -0.344039 0.0298159
0.689748 0.12901 0.0822643
0.317646 -0.428733 -0.163521
-0.476811 0.803714 0.0537105
-0.4902 -0.663743 -0.084596
0.612894 -0.407016 -0.0698102
0.461694 0.754192 -0.115367
-0.642816 0.257247 -0.0707569
-0.451234 -0.0502701 0.0367971
0.522802 -0.12659 0.162632
-0.402238 -0.433314 0.160067
-0.341346 0.903677 -0.0706718
0.33541 -0.327984 0.257862
0.6558 -0.163679 0.0817941
-0.443346 -0.650959 0.168889
-0.397747 -0.0497382 -0.081308
0.288582 -0.593566 -0.102258
-0.331265 -0.625455 -0.209102
0.693628 0.360508 -0.0023344
-0.693103 0.216834 0.102129
0.375673 -0.0996411 -0.118372
-0.626772 -0.0338609 -0.029717
-0.275014 0.888447 -0.102525
0.522002 -0.515385 0.25262
-0.299515 0.924587 -0.0139078
-0.201849 0.96287 -0.0698102
0.294482 0.877898 0.020521
0.45955 -0.361195 -0.330084
0.349572 -0.247671 -0.247328
0.344999 0.901016 0.00147164
-0.509583 -0.159485 0.210012
0.548932 0.64286 0.0985606
0.290373 -0.583404 0.101915
-0.498328 -0.434603 -0.309271
-0.693632 0.233907 -0.00475226
-0.599415 -0.487081 -0.0569124
0.435333 0.780634 -0.0257237
0.357996 -0.199898 -0.205732
0.431302 -0.111105 0.198433
-0.570745 -0.649675 -0.108901
-0.526564 -0.602166 0.153446
0.605692 -0.447864 0.300113
0.425138 0.847104 -0.0643415
-0.638375 0.0866419 -0.125744
0.334807 -0.428883 0.326946
0.69364 0.254837 -0.104462
0.632719 -0.294581 -0.0173001
0.693274 0.243 0.0535477
-0.040034 0.948341 0.108214
0.326255 0.860875 -0.110233
0.0400991 0.976134 0.0737033
0.466255 -0.371757 0.168729
-0.29644 -0.552614 -0.0488823
0.135125 0.934815 0.0293489
0.349453 -0.671723 0.144497
-0.690972 0.147931 0.0769839
-0.484768 -0.659931 0.117923
0.686701 0.0692531 -0.125744
-0.143841 0.977818 0.0973225
0.687057 0.0419726 3.45347e-05
-0.339899 -0.306147 0.242634
0.471147 -0.356604 -0.00371193
0.592641 -0.223803 0.180022
-0.388476 -0.698866 -0.0895201
0.410763 -0.509846 0.109035
0.639807 0.180621 0.0932654
-0.570332 -0.353942 -0.28519
0.375984 -0.601762 -0.242665
-0.487307 -0.268571 -0.0385875
-0.525727 -0.606915 -0.16111
-0.641145 0.203211 -0.0326189
0.485475 -0.0563142 -0.034373
-0.498121 -0.335418 -0.306481
-0.28934 -0.691699 -0.0401341
-0.67932 0.452832 0.120733
0.593478 -0.517131 0.231174
-0.395872 -0.270602 -0.314775
-0.63015 -0.312773 0.00941985
0.10633 0.968828 -0.0790348
0.453358 -0.510697 0.288632
-0.310509 -0.505204 -0.0895562
-0.635948 -0.279893 -0.113903
-0.693262 0.369765 0.00150036
-0.643128 -0.18669 0.0283756
-0.54754 0.727802 -0.0781126
0.562123 -0.103318 -0.0530596
-0.456551 -0.442995 -0.157352
0.494967 -0.0682961 0.0878584
0.36025 0.838899 0.0870947
0.599242 -0.484442 -0.143261
0.580277 -0.293918 -0.266246
0.574309 -0.600234 0.235546
0.137263 0.934389 -0.0378652
0.684675 7.74687e-05 -0.0913061
-0.686921 0.0169323 0.0150491
0.461592 -0.410783 -0.10929
-0.645745 -0.0859402 0.0647297
0.0559902 0.990079 -0.0343921
-0.676107 0.467984 0.035326
-0.615995 0.496089 -0.0739225
-0.613204 -0.110804 -0.064416
0.30654 -0.491716 0.243029
-0.601249 -0.17861 -0.145639
-0.595102 -0.511541 0.113746
-0.690063 0.118532 -0.053
0.434998 -0.324921 0.15942
-0.555903 0.632911 0.0317529
-0.387892 -0.20626 0.0317891
-0.570943 -0.510165 -0.229343
-0.484876 -0.242715 0.298621
-0.468453 0.811602 -0.109846
0.323647 -0.394698 -0.263662
0.335415 0.855536 -0.0356292
-0.644347 -0.232262 0.178041
0.310311 0.919007 0.122929
0.295092 -0.692789 -0.040366
-0.332716 -0.585023 -0.250488
-0.300979 -0.655117 -0.158094
-0.431443 0.820523 -0.0703484
0.57802 -0.151696 0.125612
-0.40371 -0.639305 0.209555
0.39739 -0.709305 -0.0498279
-0.350188 -0.247801 -0.239121
-0.0893317 0.986517 -0.0389438
-0.68864 0.408886 -0.0558359
-0.449894 -0.19439 0.274391
-0.565112 -0.356937 -0.195448
0.691156 0.383298 0.0712397
-0.398369 -0.295893 0.323211
0.531737 -0.569203 0.168996
-0.191387 0.920181 0.0665508
-0.497101 -0.440105 0.31014
0.343926 -0.541261 -0.283273
-0.539889 0.668821 -0.125744
0.493936 0.786945 -0.00472461
-0.674108 0.476285 -0.0462378
-0.647846 0.553755 0.0615055
-0.487723 -0.247566 -0.299042
-0.433318 -0.477446 -0.317628
0.600688 -0.476239 -0.0604387
0.493061 0.728469 0.123815
-0.471169 -0.360096 0.127869
-0.592741 -0.524931 0.249665
-0.311933 -0.464751 -0.192563
0.632201 0.000552957 -0.00708822
0.618892 -0.241264 0.249439
0.522927 -0.619168 0.147777
0.35452 -0.2196 0.149776
-0.635015 0.0128912 -0.0517437
0.363084 -0.292763 -0.322236
-0.363792 -0.170645 0.205007
0.533301 0.666354 -0.027915
0.382592 -0.0604 -0.0373833
-0.629258 -0.317833 -0.224322
0.629919 -0.310462 -0.17966
0.504429 -0.0822682 -0.122407
-0.391358 -0.325148 -0.327317
0.31126 -0.523396 0.0546327
0.295506 -0.554291 -0.20554
0.621022 0.477238 0.103322
-0.642707 0.360518 0.0610407
0.329467 0.909659 -0.062364
-0.400161 -0.711187 -0.0404575
-0.362888 0.837558 0.0861479
-0.581596 -0.588137 0.0779019
-0.340393 -0.532089 -0.288289
0.618387 -0.375866 0.112025
-0.285302 -0.615783 -0.083777
-0.518098 -0.066242 -0.0610375
-0.509384 -0.109289 -0.173759
-0.107116 0.940526 -0.0157502
0.477879 0.737954 0.0633032
0.387064 -0.128929 -0.226626
-0.406824 -0.242791 0.10436
-0.427629 -0.135603 -0.226264
0.608804 0.517891 0.0739299
0.518626 -0.358965 0.305322
-0.174581 0.925289 0.0172691
-0.622163 -0.358076 -0.0890648
0.359772 -0.189817 0.0441369
-0.36814 -0.465828 -0.13937
-0.522204 -0.600277 -0.0273491
0.0109007 0.949127 0.00751258
0.430979 -0.584405 -0.245462
-0.344934 -0.277593 0.172972
0.436842 0.838102 0.0869447
0.520309 -0.698547 0.0613077
-0.303137 -0.514637 0.151215
-0.327331 -0.377427 0.320338
-0.593871 -0.226184 -0.0959376
-0.334282 0.856723 -0.123556
-0.618654 -0.377973 0.0953694
0.299715 -0.530422 -0.0259418
-0.461001 0.755527 -0.0385024
0.395033 -0.298873 0.324123
-0.641518 0.21531 0.0709993
0.565441 -0.676132 0.0512767
0.634167 -0.28637 -0.121863
-0.559175 -0.106278 -0.0798975
0.422335 -0.518255 -0.0995298
0.51707 -0.625767 -0.106517
-0.584469 -0.571844 0.0286106
0.346831 -0.325182 -0.162408
-0.327696 -0.375353 0.225439
0.462008 -0.408429 -0.0188914
0.640806 0.212905 -0.0820186
0.685187 0.20841 -0.125744
-0.578146 -0.197285 0.185097
-0.643293 0.272673 0.0860043
0.63469 -0.283402 0.101238
-0.301192 -0.525666 0.0953822
0.325395 -0.384783 0.23088
0.694959 0.348235 -0.0780137
-0.384697 -0.555846 0.280231
-0.47816 0.802439 0.00101104
0.493152 -0.231803 -0.289215
0.612717 -0.180101 0.195728
0.651384 -0.187829 -0.195074
-0.297857 -0.544581 -0.146462
-0.5447 -0.472701 0.191137
-0.62523 -0.340682 0.187565
-0.567379 -0.12059 0.107533
0.591481 -0.323058 0.214994
0.493011 -0.232599 0.00950707
-0.430454 -0.591006 0.23653
0.61348 -0.403693 -0.0179245
0.354368 -0.22047 0.236394
0.619056 -0.0740009 0.0789305
0.636646 0.078398 -0.0758553
-0.380839 -0.35659 -0.166968
-0.609949 -0.129265 0.04933
0.626015 -0.332603 -0.0867192
0.400516 -0.216117 -0.0569135
0.378203 -0.380512 -0.331036
-0.36859 -0.453763 -0.320866
-0.282375 0.93295 0.0969267
-0.293024 -0.571995 0.180686
-0.3589 -0.198394 -0.219784
0.142509 0.933343 0.0981798
-0.590126 -0.215072 0.0837737
-0.524157 -0.615816 0.202468
-0.556293 -0.433563 0.249245
0.290881 0.928487 0.0776519
-0.621448 0.477946 0.00572763
-0.578724 -0.604427 -0.0408947
0.499366 -0.583613 -0.213233
-0.567439 -0.668424 0.0405223
-0.329046 -0.573492 0.260928
-0.635892 0.0334 -0.114309
-0.0512639 0.947232 0.0326294
0.639479 0.170031 0.00545425
0.573791 0.598068 -0.103007
-0.633423 -0.294207 -0.274266
-0.610949 -0.132892 0.158517
-0.0609194 0.946279 -0.125739
0.690206 0.143785 -0.0579634
-0.620437 0.614205 0.072028
0.483682 -0.66747 0.0858267
0.658403 0.523341 -0.00587237
-0.317882 -0.693958 0.0591408
-0.586172 -0.562182 0.199719
0.664551 0.49848 -0.125744
-0.435684 -0.620266 -0.207198
-0.528864 -0.56251 0.123467
0.411701 -0.629342 -0.221706
-0.51239 0.76842 0.122922
0.633657 0.584871 0.102865
0.586165 -0.558602 -0.127826
0.427196 -0.673787 -0.12163
0.424818 -0.190362 0.274571
-0.273281 0.889166 0.00898797
0.368051 -0.142867 0.241808
-0.320963 -0.664914 0.14773
0.560688 -0.378404 -0.198356
0.604633 -0.453865 -0.181967
-0.421895 0.85009 0.025061
0.407413 -0.577531 0.268816
-0.664747 -0.116565 -0.122989
0.641125 0.223218 0.00179714
-0.425134 -0.528559 0.086549
-0.597154 0.556956 -0.125744
0.437885 -0.0853956 -0.154058
-0.506541 0.775178 -0.10793
0.332127 -0.698913 0.0446517
0.595195 0.658026 -0.0992234
0.315824 -0.584204 0.250616
0.0373557 0.95094 0.123815
0.413263 -0.549719 0.0136099
-0.219276 0.911587 0.117598
0.643688 0.343565 -0.069975
0.660982 -0.134295 0.153475
-0.648121 0.299661 -0.125744
0.456382 -0.312642 -0.323141
0.498392 -0.445991 -0.3005
0.684287 -0.00212233 0.0215528
-0.279621 -0.648003 0.024377
-0.525111 -0.457232 -0.274868
0.3493 -0.700188 -0.0537861
-0.125416 0.94081 0.123815
0.68741 0.411672 -0.0145226
-0.343103 0.902588 -0.0216741
0.24131 0.902174 -0.00922313
-0.569969 0.696635 0.0570825
-0.639866 0.390262 -0.0742597
-0.618164 -0.380749 -0.0451964
0.687094 0.0432044 -0.068389
-0.563638 -0.284021 0.248179
0.609987 -0.423504 0.102715
0.39989 -0.437712 0.15829
0.681045 0.00720873 0.123814
-0.606791 0.638511 -0.0584878
0.357304 -0.379037 0.332683
-0.581999 -0.58585 -0.211083
0.636448 0.0719794 0.103142
-0.0243419 0.991708 0.0313657
0.636952 0.0883173 0.0524638
-0.0942982 0.942986 0.0854693
0.543448 0.731794 0.0463037
-0.240368 0.949391 -0.0215114
0.602336 -0.466891 0.177232
0.539215 -0.320483 -0.277255
0.44415 -0.41487 0.166727
0.614916 -0.395548 0.299055
0.0396449 0.990904 -0.085663
-0.627737 -0.0283859 0.0645659
-0.658508 -0.151945 -0.0904827
0.674992 -0.0548356 0.0226782
0.681014 0.441835 -0.112553
0.343842 -0.671639 -0.140985
0.615383 -0.392904 -0.164225
0.643721 0.307154 0.00129931
0.637987 0.574925 -0.0862044
-0.366888 0.834879 -0.026696
-0.0129227 0.949127 -0.0847067
-0.652926 -0.183606 0.187909
-0.0475568 0.990537 -0.0632682
0.4663 -0.682243 -0.0865958
0.60825 -0.433353 -0.27008
0.369118 -0.136819 -0.182598
0.209506 0.914478 -0.0993883
0.398479 -0.238582 0.100893
0.63049 -0.168833 0.0167171
0.569812 -0.512951 -0.232186
0.244462 0.900865 0.0989968
-0.611694 0.629778 0.019871
0.615344 0.622139 -0.00489693
-0.48987 -0.235461 0.0681698
-0.687844 0.0467679 -0.0716855
0.453135 -0.251587 -0.103228
0.591909 -0.201337 0.111045
0.404656 0.86286 -0.0155449
0.301346 -0.521166 -0.132033
0.540045 -0.550842 -0.262902
0.348549 -0.495477 0.308031
-0.592376 -0.527001 0.0138205
-0.612526 -0.412725 -0.25546
0.356589 -0.381091 0.16897
-0.486324 -0.0859923 -0.138921
-0.544729 0.73105 0.110625
0.515473 -0.634833 0.100297
-0.359197 -0.465857 0.140105
-0.583232 0.581513 0.0230356
0.463761 -0.34462 -0.162096
0.621781 -0.356617 0.166652
-0.636466 0.0519387 -0.0242856
-0.636687 0.0590891 0.0681049
0.693882 0.262626 -0.041968
0.417685 0.852838 -0.112215
-0.32552 -0.3877 0.273474
-0.313084 0.868275 0.0558316
0.59235 -0.138478 -0.0425743
0.596298 -0.50114 -0.018852
-0.598437 -0.492629 -0.263797
0.46336 -0.361644 0.331834
0.496833 -0.0906323 0.145851
-0.412856 -0.367249 -0.330828
0.615886 0.621174 0.0712706
-0.376815 -0.640885 -0.200104
-0.406724 -0.0469363 0.0648637
0.512662 0.695612 0.0789443
0.415132 -0.289788 -0.31903
-0.368552 -0.231673 0.303372
0.359475 0.839418 -0.0842918
0.28258 0.932538 -0.0912837
0.481418 0.733821 -0.0572624
0.528548 0.673498 -0.123765
-0.414285 0.855944 -0.0442784
0.473781 -0.0535017 0.0230888
0.374591 -0.200212 -0.284775
0.542181 0.733258 -0.0812112
-0.645581 -0.0868699 -0.0202083
0.398184 0.811457 0.0171979
0.506986 0.773927 0.123395
0.648588 0.220323 0.123814
-0.69443 0.259699 -0.0987267
0.456798 -0.531269 -0.277439
0.342045 -0.290355 0.211092
-0.464481 -0.379908 -0.331011
0.665498 -0.108684 -0.0822537
0.556808 0.630006 0.0482801
0.589865 -0.519346 0.282931
0.339596 -0.304245 -0.278912
-0.576773 -0.295072 -0.167218
-0.122044 0.965823 -0.0755511
-0.349759 -0.464113 0.319019
-0.560651 -0.706921 -0.0295489
0.689631 0.125228 -0.109576
-0.551709 -0.432951 -0.203479
-0.390832 -0.345845 0.166909
-0.293283 -0.570518 0.00619993
0.619066 0.483744 -0.000478184
-0.318898 -0.425253 -0.161017
-0.61723 -0.386046 -0.160486
0.583956 -0.571135 -0.202638
-0.293934 -0.566827 0.0549061
-0.663424 -0.124071 0.0953088
0.690197 0.356526 -0.125744
-0.599633 -0.485848 -0.198302
-0.696078 0.313033 0.069892
0.483985 -0.156883 0.239085
-0.567291 -0.669267 0.149273
0.351891 -0.486793 -0.309775
0.531648 -0.604658 0.0625118
-0.51849 0.689266 -0.00706375
0.546166 -0.64706 0.0113952
0.338974 -0.527689 -0.0543935
0.519315 -0.65807 -0.158586
-0.318429 -0.42791 0.160557
0.683001 0.432466 0.106361
0.277124 -0.658542 -0.11219
-0.562432 0.707362 -0.0391566
-0.358952 -0.205396 -0.0473122
0.368875 -0.138195 -0.0863533
0.651468 -0.152275 -0.164187
-0.557269 0.630342 0.0779742
0.57311 -0.632649 0.202545
0.469125 -0.368067 0.0777349
0.20868 0.960832 0.0892285
-0.691402 0.161832 -0.100195
-0.658855 0.523926 0.0279692
0.0902019 0.943326 -0.116089
-0.563159 -0.672045 -0.148591
0.524159 -0.225387 0.25658
-0.621492 -0.361881 0.286425
-0.59593 -0.20877 -0.200717
0.671681 0.314215 0.0691261
0.474349 -0.271839 0.311729
0.373796 -0.110283 0.00774341
0.584099 -0.272247 -0.224462
0.644765 -0.087873 0.0329496
0.559244 -0.0976317 0.0651828
-0.447496 -0.0774186 0.137343
-0.474575 -0.65155 -0.152925
0.615281 0.496342 -0.114135
-0.479665 -0.311913 -0.0816112
-0.348641 -0.533702 0.0412637
-0.34029 -0.641784 0.192132
0.665264 0.106735 0.0169617
-0.690641 0.137206 0.0324677
0.327875 -0.370721 -0.217095
-0.360296 0.891932 0.0237824
0.450896 -0.431927 0.329664
-0.593177 0.558719 0.123815
0.514026 -0.643034 -0.0213039
0.594451 -0.343503 -0.293776
0.633646 0.422296 0.0561241
-0.638405 0.114636 0.115829
0.453827 -0.454825 0.0182786
0.221141 0.95624 0.00532873
0.284695 -0.615605 0.139025
-0.247976 0.899672 -0.0366142
0.559704 -0.383985 0.253668
0.364943 -0.160498 -0.0276534
-0.674022 -0.0353884 0.123914
-0.290032 -0.588958 -0.2352
-0.578005 -0.608506 0.156267
-0.604901 -0.317579 0.243357
-0.33966 -0.536533 -0.0136387
0.55499 -0.562674 -0.161449
0.639299 0.38952 -0.0626799
-0.0157639 0.949127 -0.0394385
-0.396734 -0.704012 0.0777168
-0.567688 -0.342326 -0.240247
0.51623 -0.425759 0.292788
0.176609 0.924479 0.00427351
-0.482962 -0.531755 0.279363
0.353513 -0.230737 -0.0992341
0.456708 -0.438487 -0.144576
0.4876 -0.263289 -0.0471877
0.596629 -0.499258 0.0635745
0.319759 -0.416745 -0.211246
0.513679 -0.671612 -0.105411
-0.197896 0.963888 -0.0221443
-0.368859 -0.141904 -0.0502704
0.546168 -0.647045 -0.0797965
-0.561422 -0.0885815 0.0146396
0.541945 -0.090092 -0.0152928
0.623941 -0.0740455 -0.134489
0.435723 0.780243 -0.0866118
-0.408222 -0.69089 0.124386
0.393119 -0.426652 -0.327137
-0.411467 -0.458668 -0.148058
-0.585755 -0.266473 0.211522
0.243823 0.947882 0.0493694
0.448165 -0.486938 -0.0808655
0.681088 0.441484 -0.0471697
-0.686963 0.0183003 -0.0330699
0.0975438 0.970465 0.0180297
-0.48266 -0.679814 -0.00364811
-0.524658 -0.0814055 -0.0111676
-0.440207 0.776385 0.122864
-0.381534 -0.124335 -0.223173
-0.466776 -0.385012 -0.0156449
0.574007 0.689978 -0.0758192
0.145672 0.977182 -0.0572645
-0.667695 0.164688 -0.0381609
0.566425 -0.631627 -0.203862
0.648566 -0.0663218 -0.0852492
-0.548432 -0.258861 -0.25369
-0.645849 -0.223744 0.0526808
-0.685861 0.40096 0.123815
0.546482 0.728289 0.10711
-0.627271 -0.329101 0.132861
-0.0389735 0.99097 0.120419
0.632542 -0.29559 0.15906
-0.637792 0.0948305 -0.0353335
-0.604119 -0.460405 -0.0949238
-0.316948 -0.436309 -0.276343
0.638335 0.13301 -0.0777403
0.436596 -0.464688 -0.321178
-0.306946 -0.493036 -0.229865
-0.453747 -0.290382 -0.138784
-0.660137 -0.142711 0.143955
-0.601003 -0.478076 0.0207911
-0.454231 -0.456157 -0.0207327
-0.613038 -0.409821 -0.203256
0.589057 0.566532 0.0204316
0.615841 -0.0922258 0.00011006
-0.509863 0.699816 -0.0977002
-0.534552 -0.644884 -0.181355
-0.493573 0.719737 0.0699271
0.144498 0.977484 -0.105718
-0.692276 0.190072 -0.00382256
-0.471157 -0.360161 0.0701717
0.574148 0.597396 -0.0470101
0.667183 -0.099122 0.0992712
0.587182 -0.22815 -0.175313
-0.590969 0.650874 -0.125744
0.315314 -0.441953 -0.296296
-0.66915 0.375305 0.0926484
-0.557161 -0.428639 -0.282834
-0.591336 -0.532904 0.15442
0.364982 -0.261293 0.130523
0.597698 -0.168506 0.0828653
0.400982 -0.243908 -0.3043
-0.671408 0.284738 0.0193445
0.65198 -0.185345 0.165916
0.484491 -0.601682 0.215839
-0.666597 0.499746 -0.0820707
-0.294503 -0.563601 -0.186181
-0.133769 0.935212 -0.124437
-0.635635 0.415409 0.00254388
-0.353301 0.843981 0.0317593
-0.621671 -0.360863 0.0555444
-0.690217 0.397822 0.0345335
-0.572669 0.601379 0.11195
-0.607676 -0.142158 -0.122965
-0.614028 -0.404207 0.213869
0.603137 -0.323958 0.256784
-0.655724 0.50439 0.123815
0.583174 -0.57557 0.0560252
-0.604092 0.601345 -0.0819878
0.374228 -0.107836 0.122623
0.427858 -0.546317 0.290706
-0.3263 -0.383271 -0.232631
-0.535442 -0.5252 0.230789
-0.162107 0.973111 -0.0900519
-0.573448 -0.630213 0.0726896
-0.554196 -0.526273 -0.276132
0.00713186 0.992545 -0.00442144
0.302779 0.904911 -0.0163821
0.477097 -0.632783 -0.181161
0.45679 -0.438023 0.077436
-0.687716 0.0426395 0.0970214
-0.647006 0.332809 0.00438946
-0.636408 -0.277284 0.268202
0.550721 0.640172 0.00689136
-0.15582 0.930817 0.0950673
0.501318 0.709485 -0.0278948
-0.430474 -0.59089 -0.253637
-0.381387 0.828989 -0.125744
0.609381 -0.128863 -0.0859023
0.520536 -0.316128 0.302408
0.589426 -0.215425 -0.063082
0.63367 -0.289191 -0.232859
0.4342 0.78177 0.0904018
-0.32441 -0.393991 -0.315615
0.388819 -0.229429 0.300396
0.517257 -0.153988 0.201546
0.513533 0.766362 0.0273671
-0.0885573 0.98517 -0.125744
0.489945 0.790713 0.0848853
0.310858 -0.467225 -0.141667
0.584045 -0.570628 -0.069974
-0.561646 -0.566582 -0.166464
0.650795 -0.189469 -0.0347931
0.498873 0.712475 0.0361078
-0.383044 -0.0614584 -0.0131036
0.411992 -0.650185 0.198235
0.563764 -0.288305 0.248825
-0.644519 0.351463 -0.125744
0.454751 -0.648038 0.17806
-0.519633 -0.693196 0.081108
-0.51781 0.762158 -0.0688549
0.32255 -0.466955 0.13484
-0.397447 -0.527914 -0.0769616
0.643657 0.305079 -0.0883659
-0.481125 -0.167177 0.249452
-0.425422 -0.392448 0.332605
0.677323 -0.0416219 -0.0651446
-0.608865 -0.259756 0.17523
0.463787 -0.072251 0.116854
-0.461238 -0.0553302 -0.0555317
-0.375335 0.882612 -0.0851162
0.516599 -0.11752 -0.146896
0.582932 -0.576936 0.141716
-0.376509 -0.0985284 0.130158
0.0493291 0.94736 -0.104645
0.335802 -0.325763 -0.207536
0.691396 0.18228 -0.0223124
-0.290315 -0.587353 -0.143151
-0.473686 -0.345823 0.327724
-0.376276 -0.0998453 0.190698
0.466152 0.813172 -0.0371919
0.576442 0.67871 0.123815
0.328016 0.859932 0.0542275
0.62458 -0.34074 0.0719365
0.687063 0.0422023 0.0585441
-0.520612 -0.635918 0.125257
-0.422507 -0.0747636 -0.138967
-0.63136 -0.143608 -0.161471
-0.365463 -0.161167 0.111767
0.579813 -0.269947 0.203588
0.445566 -0.108052 -0.188778
-0.631998 -0.00421895 0.112464
0.406433 -0.0654506 -0.123591
0.545865 -0.462468 -0.229106
0.385964 -0.470949 0.31893
0.594864 -0.204206 0.00930496
-0.521958 -0.688116 -0.0974098
-0.617058 0.492553 0.0777189
-0.354894 -0.221114 -0.119899
-0.460738 -0.460489 0.305199
-0.313606 -0.455264 0.199094
0.556615 -0.493452 -0.288087
0.578369 -0.37526 0.301334
0.642909 -0.23679 -0.156212
0.408246 -0.713325 0.0375056
0.496302 -0.511347 -0.272836
-0.644569 -0.0926056 -0.0901859
-0.00406392 0.992733 0.0679134
-0.390893 0.820129 0.123815
-0.491383 0.764325 0.0403766
-0.658556 -0.0132819 -0.0821814
0.615508 -0.392189 -0.122453
-0.633506 -0.0539453 -0.129588
-0.513207 -0.121688 0.165682
0.568143 -0.660811 -0.115149
0.350294 -0.243573 -0.187793
0.324398 -0.506394 0.0933962
-0.617733 -0.225928 -0.236698
-0.649193 -0.204774 -0.0751182
-0.659775 -0.144762 0.00397354
-0.626182 -0.335281 -0.186603
0.596757 -0.221237 -0.235817
-0.341716 -0.295843 -0.301599
0.618762 -0.22622 0.135103
-0.408747 -0.18793 0.2749
0.591498 0.560602 -0.028299
0.444686 0.771252 0.0136971
0.617128 -0.24461 0.206289
-0.121828 0.981562 0.0594919
0.677792 0.137501 0.123814
-0.404559 -0.286169 -0.141636
0.148655 0.976413 0.0237249
0.628279 -0.0216908 0.0813505
0.33243 0.879239 0.123815
0.464357 0.751519 0.104921
-0.626526 0.461049 -0.103916
-0.17572 0.927619 -0.125744
0.321228 -0.652209 -0.169636
-0.437405 -0.551582 -0.0206466
0.377807 -0.0875432 -0.069557
0.5384 -0.531414 0.209284
-0.149113 0.960428 0.0128504
-0.478079 -0.320906 0.0282139
-0.277775 -0.658472 -0.061779
-0.588378 -0.179107 0.14749
-0.505676 -0.297469 0.294882
0.645613 -0.22146 -0.224269
0.590774 -0.394068 -0.244116
-0.543157 -0.481443 -0.239506
-0.636151 0.0417524 0.0306966
-0.35792 -0.203945 0.228602
-0.0659008 0.945788 -0.0300404
-0.343297 -0.493722 0.113989
-0.363501 -0.172293 -0.148491
0.608195 -0.135592 0.0453059
0.643636 0.344097 0.0194998
0.618535 -0.0769485 0.130773
-0.303483 -0.512672 0.249829
-0.651868 0.544519 -0.0590941
0.568053 0.608858 0.111625
-0.294263 0.909816 -0.0711866
-0.558674 -0.393446 0.237193
0.274293 -0.674599 0.0999126
-0.645938 -0.223234 0.138016
0.667258 0.171191 -0.0823771
0.455423 -0.682884 0.112704
-0.462488 -0.218932 -0.0270311
-0.39161 0.817393 -0.0795284
-0.601633 -0.474506 0.165361
-0.456349 -0.444146 0.107379
0.0651447 0.9458 0.0925548
-0.403059 -0.502954 0.115274
-0.590102 -0.539902 -0.13841
-0.635753 -0.281 0.101964
0.40418 -0.160505 -0.253099
0.377966 -0.108563 0.206778
0.298491 -0.537362 -0.264906
-0.486372 0.728545 -0.0117984
0.643166 -0.235335 -0.0365494
0.485138 -0.12563 -0.202793
0.557633 0.628456 -0.124883
-0.574291 0.603277 -0.125744
0.664353 -0.115177 -0.12244
0.59093 0.665622 0.00454051
-0.610703 0.513695 -0.026446
-0.44594 -0.277945 -0.314213
-0.533499 -0.419958 0.280087
0.406552 -0.0643486 0.12247
0.534909 -0.434953 -0.273084
-0.594048 0.661206 0.103118
-0.545666 -0.180867 -0.22156
0.474947 -0.335053 -0.0461474
0.214466 0.958699 -0.0400852
-0.411518 -0.118053 0.211262
0.373697 -0.570231 -0.268102
-0.487101 -0.630148 0.167964
0.32202 -0.403925 0.19531
0.527692 0.713974 -0.125744
-0.453554 -0.126445 0.212453
-0.305502 -0.501225 0.300908
-0.331382 -0.701519 -0.00760413
0.655552 0.454688 0.0672912
-0.540419 0.656615 0.00289278
0.640333 0.19759 -0.119379
-0.653064 -0.00983226 -0.125744
-0.536877 -0.0956563 0.087251
-0.348981 -0.254638 -0.182606
0.695906 0.328079 -0.0262514
0.599831 -0.481104 -0.103082
0.605036 -0.153507 -0.134183
-0.0793294 0.948803 0.123815
-0.542953 -0.668903 -0.0623066
0.593895 -0.216688 0.229773
-0.665558 0.0955868 0.0775232
0.094592 0.985617 0.0813175
-0.544183 -0.66193 0.0753723
-0.488766 -0.586443 -0.226892
0.596879 -0.497844 -0.197226
-0.639765 0.158599 0.0929558
-0.376203 -0.100258 -0.0901785
0.667061 0.4963 -0.0461027
-0.647762 -0.0745019 0.103103
0.351062 -0.260558 0.315683
0.601032 0.605898 0.0332166
-0.444541 0.809743 0.0307562
-0.446225 -0.50156 -0.0652606
-0.481762 -0.212519 -0.280632
0.694352 0.277851 0.0732023
0.646105 0.381685 0.123815
0.483653 0.796651 -0.100771
-0.669894 0.489449 -0.121398
0.66409 0.0687552 -0.0250951
0.635669 -0.139462 0.111588
-0.309452 0.87022 -0.0808932
0.545616 -0.650178 0.0791528
0.373657 -0.663688 -0.166247
0.694394 0.279187 0.00405544
-0.400888 -0.187103 -0.273497
-0.27614 -0.667742 -0.011191
-0.382711 -0.255487 -0.121079
-0.327547 -0.376197 0.170936
-0.642463 -0.104551 0.0297148
-0.52045 -0.466825 0.27657
0.461355 -0.41213 -0.0644149
0.422863 -0.520783 -0.301316
0.527412 -0.478201 0.265551
0.59482 0.552528 0.0874808
-0.522347 -0.599465 -0.105662
0.366181 -0.153476 0.0294372
-0.636803 0.52319 0.0944344
-0.444111 -0.513552 0.0370014
0.456413 -0.440163 0.127572
-0.57983 -0.598153 -0.0864576
-0.0638063 0.989717 0.0324784
-0.547684 -0.522618 0.176382
-0.473202 -0.348564 -0.158188
0.580292 -0.453517 0.262917
0.582454 -0.44126 -0.241267
-0.60487 -0.456149 -0.285228
-0.413318 -0.69662 -0.00313645
0.663293 -0.121184 0.0645978
-0.547957 -0.165244 0.202898
0.552726 -0.609854 0.171836
-0.559247 -0.492234 0.290261
0.651156 0.473311 0.0246631
0.294246 -0.561438 0.0694388
-0.653885 0.2699 0.123815
0.594688 -0.510268 -0.26253
-0.594642 -0.375762 -0.249252
0.554931 -0.708448 -0.035943
0.557466 -0.177647 -0.192126
0.664879 0.407111 0.0172968
-0.435845 -0.212884 0.0203997
0.669782 0.252815 0.0237026
-0.436029 0.780577 -0.0154236
-0.639269 0.396516 0.0787327
0.692633 0.22226 0.0867851
0.446825 -0.494532 0.108979
0.61733 -0.212609 -0.105149
0.374683 -0.332307 0.164752
-0.575181 -0.135589 -0.102216
0.418364 -0.383748 -0.167634
-0.490992 -0.0721 -0.102686
0.669298 0.237146 -0.0706984
-0.55422 -0.703951 0.0639957
0.435826 -0.584538 0.242439
0.653793 0.537743 0.089837
0.441986 -0.253317 0.109484
-0.318994 -0.680059 0.111807
-0.630918 -0.195378 0.0753138
0.440829 -0.661604 0.143203
-0.343299 0.850682 0.117241
-0.410149 -0.0418847 0.0177244
0.298825 -0.53547 0.159849
0.611582 -0.414456 0.0236845
-0.67202 0.304511 -0.0835663
0.41625 -0.687327 -0.0759224
-0.655111 0.460197 -0.0162501
0.679392 0.0948305 0.123814
0.554587 -0.124155 0.140072
0.33152 -0.350044 0.330205
-0.36091 -0.32624 0.330085
0.357224 -0.560223 0.274406
-0.657143 -0.0212993 0.0282894
0.584572 -0.42925 0.232215
-0.463239 -0.405067 -0.163294
0.664224 0.410451 0.0777966
-0.241103 0.948712 0.123815
0.5901 -0.53629 -0.0337741
-0.532915 -0.626228 0.0612449
0.343052 -0.62059 0.219442
0.667059 0.164766 0.0343516
-0.609867 -0.289411 -0.244076
-0.466721 -0.39443 0.313591
-0.245315 0.947568 -0.0905636
-0.53538 -0.323232 -0.286357
-0.667246 0.395238 -0.0112229
-0.554761 -0.60193 -0.185992
0.338181 -0.615528 -0.222544
-0.531627 -0.154922 -0.189684
-0.684538 -0.00432745 0.05921
0.647033 0.292459 -0.125744
0.548523 -0.633688 0.120027
0.580977 -0.358098 -0.224674
-0.380055 -0.236776 -0.303042
-0.449653 -0.482121 0.0128015
0.313284 -0.453466 0.187955
0.346652 0.899993 -0.0968683
0.42197 -0.386134 -0.331145
0.403733 -0.493891 -0.122666
0.483535 -0.286343 -0.313262
0.498758 -0.545888 0.254367
0.484716 -0.279643 0.055088
0.394935 0.870069 0.0944036
-0.423277 -0.691667 -0.0640543
-0.380694 -0.074788 0.069058
-0.392987 -0.148989 0.247224
0.441829 0.828853 0.123815
-0.268458 0.93904 0.0469175
-0.615147 -0.259465 -0.203639
0.35866 -0.196125 -0.114844
-0.580324 -0.456957 0.270947
-0.482333 -0.677036 -0.041818
-0.555788 -0.596111 0.211129
-0.563018 -0.555108 0.231034
-0.418335 -0.512811 -0.105156
-0.375279 -0.105497 -0.00862638
0.404721 -0.212441 0.04489
-0.57294 -0.481049 0.21704
0.575179 -0.620914 -0.0444593
0.67295 -0.0113928 -0.125744
-0.188167 0.966396 0.0829972
0.666011 0.130868 -0.031469
-0.64097 0.378709 0.0156086
0.317729 -0.428261 0.265088
0.560442 -0.566095 0.223447
0.101988 0.94142 -0.0504662
-0.679583 0.451593 0.0727513
-0.565308 -0.542116 -0.209369
-0.38026 -0.486821 0.313374
0.347215 -0.686121 0.109314
0.614357 -0.398719 0.197263
0.107607 0.9403 0.0819717
-0.669191 0.491641 0.00632651
-0.617901 -0.243847 0.225553
0.668261 0.20363 -0.0436221
-0.606929 0.524651 -0.0972715
-0.340164 -0.304647 0.287185
-0.554923 -0.571554 -0.251819
-0.360578 -0.188873 -0.098281
-0.693941 0.243907 -0.04135
-0.2738 -0.681014 0.0421243
-0.288473 -0.5978 0.144566
-0.540096 -0.632744 -0.0353622
0.638025 0.12299 0.085698
0.345594 -0.27023 -0.142656
-0.323763 -0.681109 -0.109512
-0.553819 -0.217195 -0.233019
-0.344564 -0.279693 0.215992
-0.409061 -0.397094 0.168516
-0.696985 0.335459 -0.0868405
0.37235 0.884066 -0.0210625
0.450633 0.827492 -0.0917635
-0.366568 0.868468 -0.0467644
0.313716 -0.644013 0.181817
0.531403 0.716496 0.00787744
0.649246 -0.200858 0.0793081
-0.280778 -0.641438 -0.125627
-0.206421 0.961692 0.0145364
-0.594139 -0.139894 -0.042586
-0.665965 0.108744 0.0331666
-0.417628 -0.217156 -0.0521277
-0.551675 0.689756 -0.0706633
0.606421 -0.443731 0.136938
0.438237 -0.54324 -0.0137982
0.556162 -0.419577 0.203623
0.619367 -0.370306 -0.0921177
0.528109 -0.637648 -0.188909
0.368387 -0.140962 0.169118
-0.561422 -0.377868 0.200653
-0.472506 0.746239 0.123815
-0.66459 0.411847 -0.0924645
-0.365933 -0.158503 0.0657158
0.632518 -0.157333 -0.0764149
-0.590347 -0.400122 0.268059
0.436573 -0.0530049 -0.0674146
0.497591 0.757456 -0.0854247
-0.403604 -0.454432 0.324079
0.495384 -0.62149 0.175495
-0.329812 -0.499484 -0.303463
-0.402969 0.808045 -0.045055
0.283642 -0.683947 -0.0768276
-0.372966 0.88408 -0.122474
0.601069 -0.176002 -0.173488
-0.433743 0.782718 0.0768084
0.422366 -0.210428 -0.0174458
0.310356 0.918984 0.0436869
-0.542857 0.652951 -0.084045
0.227047 0.908096 -0.0499652
-0.422796 -0.0600085 0.104276
0.65321 0.539563 -0.110308
0.296606 0.925694 -0.0546232
-0.606426 -0.173143 0.188752
-0.461223 -0.416501 0.0505033
0.375265 -0.463089 -0.141998
-0.54706 -0.645607 0.182104
-0.669878 0.235262 -0.0840525
0.63993 -0.115294 -0.030384
-0.680785 -0.0256117 -0.00540965
-0.639762 0.1585 -0.0112995
0.690948 0.167776 0.0849417
-0.5906 0.56434 -0.0375014
0.414286 -0.276966 -0.134329
-0.625023 -0.341853 -0.0131951
0.290802 0.87987 -0.105151
0.568416 -0.205206 0.201209
0.633705 0.530894 0.034441
0.594073 -0.375363 0.264821
-0.609947 0.590191 -0.0108932
0.453249 -0.458101 -0.103712
0.415012 0.797608 -0.061179
0.46743 -0.377674 0.0419339
-0.626072 0.550997 -0.0332294
0.563109 -0.546589 0.18439
0.489108 -0.254734 -0.0948387
0.597985 -0.49157 0.257641
-0.0689761 0.989455 -0.0934782
0.594135 0.659915 0.0829855
-0.502476 -0.182544 -0.233848
0.0443104 0.979519 -0.125744
-0.52295 0.727616 -0.00621277
-0.552701 -0.613621 -0.12242
0.318252 -0.509253 -0.0856576
-0.642572 0.249356 0.0566294
0.576263 -0.485279 0.218774
0.644778 0.0148091 -0.0706845
-0.64315 -0.239046 0.00603824
-0.288789 -0.59601 0.234367
0.670786 0.351476 -0.0449773
0.457219 -0.219939 -0.287822
-0.621371 -0.0951468 0.140873
0.295658 -0.55343 0.253408
-0.585056 -0.320294 -0.288118
0.420843 -0.455882 -0.150342
0.53103 -0.214003 -0.252986
-0.688214 0.0587423 0.0176744
0.631716 -0.300273 0.278564
-0.566889 -0.671545 0.00384695
0.359668 -0.329757 -0.32889
0.528548 -0.587292 -0.185254
-0.388024 0.820344 0.0120409
0.484561 -0.677443 -0.0224953
-0.624757 -0.204969 -0.155718
0.283898 -0.620122 -0.139487
0.278549 -0.650462 -0.0290075
0.474882 -0.312172 0.150939
-0.672955 0.334751 0.0897455
-0.574372 -0.33103 0.258594
0.287752 -0.598269 0.0407191
0.68871 0.0954251 -0.0198626
-0.560702 -0.308527 -0.257365
0.379231 -0.0794663 0.0538456
-0.574418 -0.628844 -0.151754
0.469092 -0.104658 0.1791
-0.600325 -0.157227 0.0276884
0.429181 -0.0448482 0.00824868
-0.591468 -0.309781 0.194201
-0.355471 -0.217836 0.111693
-0.375948 -0.199723 0.286141
-0.60195 -0.334316 -0.250395
-0.628122 -0.324276 -0.101824
0.514749 -0.665546 0.00805614
0.663433 0.414487 -0.0854002
-0.374223 -0.288483 0.148016
-0.665428 0.0913936 -0.0074084
0.667935 0.193102 0.011242
-0.598617 0.544852 0.0512841
0.454336 -0.139306 0.226923
-0.617506 -0.213373 0.107882
0.448034 0.829492 0.0333326
0.269981 0.908834 0.123815
-0.335317 -0.335644 -0.165083
-0.235591 0.921341 -0.125744
-0.633064 -0.296247 0.04923
0.173527 0.970004 0.0865085
-0.409344 -0.521384 0.301522
0.407603 -0.67711 -0.152142
0.275201 0.888105 0.0595685
0.178992 0.952736 -0.0456262
0.464676 -0.222097 0.0415233
-0.53466 -0.681468 0.121971
0.528518 0.673543 -0.0769957
-0.460796 -0.434145 -0.308311
0.598297 -0.258615 0.155316
-0.602641 -0.468784 0.0947514
0.655548 0.0129103 0.0520064
0.441808 -0.230705 -0.0737055
-0.652004 -0.0504456 -0.0499194
0.303563 -0.508598 0.275058
0.576385 -0.614073 0.138579
-0.55268 0.712559 -0.125744
-0.537841 0.709405 0.0459484
-0.511315 -0.688646 0.0313678
0.373656 0.829918 0.0500768
0.464441 -0.404846 -0.311277
0.001209 0.949127 0.12214
-0.606027 -0.44958 0.0477046
0.59825 -0.191988 0.163656
-0.376591 -0.0980614 -0.170486
0.677433 0.334389 0.122637
-0.27978 -0.647099 0.0683857
-0.620231 0.565195 0.0911741
-0.641299 0.208205 -0.121037
-0.612491 -0.412923 -0.0106464
0.198291 0.962027 0.123815
0.640051 0.188472 0.0379768
-0.455228 0.824086 0.0815835
-0.408171 -0.313792 0.157044
0.604018 -0.31896 -0.255712
-0.361814 -0.181861 0.0385342
0.411782 -0.693273 0.0677539
0.522938 -0.592496 -0.0938888
-0.455111 -0.451167 0.0583005
0.305015 -0.668957 -0.132495
0.580425 -0.591157 0.00575954
0.491288 -0.242374 0.279146
-0.661043 0.429938 -0.0461974
-0.597949 -0.4954 -0.148685
0.664001 0.065881 0.0288479
0.476596 -0.325697 -0.131267
0.65047 -0.0555228 -0.00818918
0.454154 -0.696732 -0.00879551
0.425709 -0.381807 0.333163
-0.503282 -0.229899 0.268114
0.323636 -0.394758 0.328961
0.605205 0.610856 0.123815
-0.583432 0.677472 0.0118962
-0.559229 -0.576594 0.179144
-0.306201 -0.689191 -0.0717568
-0.319485 -0.421924 0.282511
-0.59709 -0.339367 -0.215184
0.533062 0.666713 0.0731981
-0.6651 0.0807914 -0.063399
0.542137 -0.513002 0.282148
-0.587604 -0.229375 -0.168288
0.636841 -0.132814 0.000737662
0.559421 0.677153 0.0175925
0.60878 -0.43035 -0.155313
0.272517 0.937308 -0.0116378
0.418789 -0.047014 0.0514192
0.580016 -0.359464 0.22684
-0.455288 -0.450166 -0.100214
0.597549 -0.169347 0.0018365
-0.295765 0.926416 0.0248663
-0.497095 -0.552893 -0.244026
-0.450777 -0.250935 0.305441
-0.0817781 0.972084 0.0578335
-0.690401 0.129462 0.122595
-0.663122 0.419333 0.0256343
0.293366 -0.566426 0.195139
0.475084 -0.334273 -0.0906806
-0.619368 -0.0758475 -0.068072
0.642469 0.266675 -0.0143333
-0.659542 0.335704 -0.0288533
0.629743 0.540524 -0.0818431
-0.669373 0.372969 -0.0842673
0.548331 -0.634777 -0.129274
-0.637509 -0.132644 0.118356
0.249938 0.945628 -0.0856406
0.642745 -0.23772 0.0618651
-0.395318 -0.261838 0.31326
-0.48637 0.728547 -0.122428
0.121609 0.958987 -0.125744
-0.630707 -0.171226 -0.0646532
-0.692209 0.187887 0.0815165
0.434326 -0.528183 0.0897476
-0.668736 0.0562351 0.123814
-0.520784 -0.634946 -0.106813
0.514959 -0.0604245 -0.0149737
0.595434 -0.506032 0.19092
-0.669645 -0.0887899 0.0131727
0.53456 0.712636 -0.0399214
-0.39988 0.846152 0.0743863
0.606812 -0.441511 -0.0564869
0.636663 -0.133825 -0.110329
0.654697 -0.0315452 0.112534
0.670694 0.282299 -0.0856417
-0.270087 0.93844 0.000188776
-0.575854 0.653414 -0.0672646
0.331011 -0.35293 0.170271
0.278145 -0.65275 0.0358174
0.349964 -0.536903 0.0271799
0.623687 0.46837 -0.0767191
-0.638517 -0.126935 -0.0287139
0.635536 0.0425247 -0.096095
0.522225 -0.362754 -0.299867
-0.0256651 0.949127 0.00105997
0.469911 -0.153664 -0.236598
0.53838 -0.680816 0.125174
-0.573156 -0.636004 -0.0764032
0.606898 -0.441023 0.205141
-0.454815 -0.690855 -0.0831674
-0.541094 -0.211421 0.249095
0.28467 -0.615743 -0.0268588
-0.690234 0.124056 -0.108407
0.594034 -0.189292 -0.134104
-0.385742 0.855625 0.0242132
-0.301278 -0.525179 0.0600716
-0.637784 0.474063 0.123815
-0.56512 -0.405749 0.303123
-0.360694 -0.688087 -0.108317
0.67724 -0.0420921 -0.100358
-0.626996 -0.184278 -0.0169129
-0.175104 0.92513 -0.0431605
-0.227102 0.908338 0.0592834
-0.506805 0.747359 -0.0366557
-0.478907 -0.286304 0.134538
0.601399 -0.174132 -0.056972
0.5397 -0.373844 0.280775
-0.663877 0.0412343 -0.00390447
-0.332128 -0.350222 -0.222132
0.28951 -0.588296 -0.233169
-0.321251 0.863899 -0.0274417
0.539596 -0.600829 0.230189
0.214449 0.912976 0.0802921
-0.56315 0.672508 0.088769
-0.659843 -0.00598262 -0.0256184
-0.412811 -0.688266 -0.131434
-0.472815 0.743675 -0.0766021
0.66524 0.105943 -0.0806634
0.447062 -0.493188 -0.02738
0.607982 0.520537 -0.0339049
0.573984 -0.222542 -0.207253
-0.636887 0.409024 -0.031854
0.35761 -0.202082 0.204778
-0.645169 -0.227596 -0.206049
0.518308 -0.538496 -0.238464
-0.47742 -0.665061 -0.117093
