ply
format ascii 1.0
comment Created by Open3D
element vertex 1640
property double x
property double y
property double z
end_header
0.633897 0.617541 -0.0302191
0.63974 -0.34982 0.215537
-0.588768 -0.435931 0.22964
-0.581397 -0.0697235 -0.0620042
0.560094 0.722665 0.0937397
0.331672 -0.0973516 -0.119378
-0.426808 -0.152129 -0.0128444
-0.624329 0.394098 -0.0392518
-0.600127 -0.288421 -0.0595939
0.264465 0.84896 0.0873052
0.584569 -0.467426 -0.202374
-0.716235 -0.179193 -0.0275715
-0.429152 -0.400682 0.0381938
-0.672853 0.13442 0.0240102
0.693205 0.302766 0.0744168
-0.426085 -0.3683 -0.0798323
0.327471 -0.162956 0.209904
-0.612052 -0.118395 -0.202753
-0.573317 0.547316 -0.0188478
-0.695323 0.485252 -0.0032798
-0.430679 -0.251109 0.0923399
-0.41747 -0.540651 -0.157179
-0.340471 -0.22421 0.16466
0.253537 0.945586 0.00204355
-0.340616 0.911605 0.0534925
0.594561 -0.259989 -0.264054
-0.452505 -0.00486589 -0.0669216
-0.438131 0.738746 0.0658278
-0.37222 0.786794 -0.00159318
0.704342 -0.183486 0.0927661
0.131338 0.894726 0.0298208
0.685523 -0.0945422 0.0282602
-0.330451 -0.0789665 -0.0535072
-0.327134 -0.252307 -0.223953
0.669241 0.210812 -0.00653387
0.424887 -0.370464 0.283917
0.345213 -0.283516 -0.247562
0.577654 -0.418426 0.0630503
-0.523414 0.745976 -0.0960542
-0.496074 -0.570135 -0.0943657
0.577936 -0.0650851 0.0620506
0.336588 -0.0271087 0.00466792
0.582989 -0.340819 -0.138538
-0.705531 -0.358897 0.100418
-0.392561 -0.0141902 0.126827
0.423306 -0.174402 0.0591181
-0.730221 -0.305614 -0.0307665
0.503493 -0.392397 -0.273211
0.42068 -0.549454 -0.116803
0.474947 0.021373 -0.0705661
-0.629188 0.37352 0.0800831
0.593689 -0.269166 0.269427
-0.583344 0.697523 0.0183381
0.425335 -0.00626672 0.141022
0.645575 0.0528335 -0.082355
0.686646 -0.0490308 -0.0790088
-0.160996 0.891248 0.0422287
-0.602036 -0.530042 0.0846527
-0.586249 -0.377428 0.128713
-0.344261 -0.101728 -0.191553
0.584587 -0.0857207 -0.192339
-0.425251 -0.232315 -0.115446
0.573809 -0.426669 0.209625
0.355512 0.797178 0.0917702
-0.49143 -0.26851 0.295292
0.407041 -0.259556 0.304444
0.576495 -0.206874 0.117336
-0.340155 0.810331 -0.0941351
0.574412 -0.0875778 0.19641
0.658415 -0.297537 -0.202061
0.55707 0.598307 -0.0847391
-0.614212 -0.0284514 0.0305707
0.12203 0.896056 -0.0764872
0.582109 -0.438267 -0.107619
-0.33965 -0.514259 -0.0934831
0.581502 -0.175219 -0.0771779
0.57868 0.532286 0.00125691
-0.486146 -0.0764661 0.215887
0.634745 -0.180692 -0.21292
0.694043 0.111563 0.00713536
0.496027 -0.555405 0.110391
-0.160578 0.891141 -0.0781379
-0.696805 -0.262735 0.146865
-0.034163 0.988636 0.088553
0.095591 0.985238 0.0636045
0.340855 -0.31143 0.147925
-0.364928 -0.165996 0.24344
0.576072 -0.492312 0.122245
0.537721 0.751526 -0.00622386
-0.336144 -0.515407 0.00712954
-0.436293 -0.535334 0.150188
-0.578904 -0.289085 -0.151134
-0.654727 0.573381 -0.0626019
-0.569054 0.558806 0.0740438
-0.57476 -0.265352 -0.310042
0.327636 -0.0941121 0.0737639
-0.669764 -0.182883 -0.171282
-0.638662 -0.233361 0.0822221
-0.705704 0.421262 -0.0838895
-0.589627 -0.334099 0.259585
-0.333212 -0.376676 -0.226734
0.716314 0.353964 -0.00640212
-0.625371 -0.198611 0.226322
-0.423538 -0.330912 0.29409
0.456882 -0.0126092 -0.152095
0.383728 0.777522 -0.0555416
0.518035 -0.154013 0.286908
-0.233924 0.952207 -0.093022
0.546727 -0.572057 -0.0365945
-0.337442 -0.0952417 0.127065
0.457713 -0.44696 0.251307
0.690197 -0.340249 0.142533
-0.5824 -0.374446 -0.0205548
-0.446845 0.837774 -0.000426795
0.392899 0.876402 -0.0137666
-0.390569 -0.570924 0.0595889
-0.579716 -0.545985 -0.113033
-0.478073 -0.179794 -0.291865
0.425169 -0.356297 -0.0930162
-0.290832 0.839439 0.00134313
-0.449919 0.00394596 0.044576
-0.347174 -0.423755 0.0625504
-0.636245 -0.514481 -0.000797831
0.578598 -0.317123 0.0362641
-0.58623 -0.17507 0.122443
-0.478813 -0.0176681 -0.154047
-0.662025 0.310454 0.00270812
0.627199 0.365148 0.0902115
0.338375 -0.486411 0.136376
-0.393632 -0.253519 -0.304848
-0.336291 -0.415662 0.164127
-0.577219 -0.353466 -0.213702
-0.0454684 0.991839 -0.0743995
-0.5513 0.594017 -0.0886538
0.366489 -0.549297 -0.0426435
-0.215682 0.941519 0.0866523
0.581283 -0.275276 -0.0716046
0.37855 -0.0858214 0.235549
0.642239 -0.258497 0.0956366
0.59784 0.676961 0.0311413
0.631756 0.365873 -0.0839563
-0.121848 0.982181 -0.00252223
-0.577276 -0.210342 -0.215479
0.229099 0.863507 -0.0032517
0.327146 -0.389381 0.202723
0.662927 -0.0120328 0.0958526
-0.337446 -0.306679 0.189774
-0.544342 -0.469227 -0.246964
-0.329959 0.818553 0.0785437
0.507175 0.786321 -0.0852612
0.323144 -0.24708 0.20137
-0.541122 0.0123984 -0.07919
-0.595456 -0.194707 -0.0399949
-0.334328 -0.0954054 0.0292735
-0.548819 0.739055 0.0831628
-0.707788 -0.171799 0.0561295
-0.4322 0.840779 -0.095099
-0.62435 -0.00675982 -0.0971111
0.306778 0.83443 -0.0873596
0.580373 -0.489064 -0.041171
0.727471 -0.265705 -0.0294199
0.508403 -0.073211 -0.223651
-0.313311 0.92204 -0.066567
0.289987 0.93064 0.08418
0.0443949 0.905883 -0.0114281
0.652947 -0.167445 0.187855
0.409582 -0.51592 0.181744
-0.6083 0.470711 -0.0126903
-0.568941 0.00342767 0.0958826
-0.0586194 0.910221 0.0882963
0.410274 -0.281727 -0.298518
0.611983 0.457978 -0.0117119
0.695347 -0.403684 0.0640685
0.339833 -0.371848 -0.215847
0.549795 0.595582 0.0946678
-0.648614 0.0440159 0.0150647
0.3497 -0.0173581 0.0882914
0.700029 -0.194522 -0.109042
0.702091 0.436243 0.0181221
-0.465198 -0.360056 -0.297481
0.33255 -0.40917 -0.130249
0.577732 0.0181286 0.0721267
0.208505 0.953556 -0.0883894
0.425614 -0.175766 -0.0290992
0.649602 -0.471605 -0.0783181
0.495391 0.793124 0.0940982
-0.552427 -0.0989762 -0.251837
-0.653348 -0.207591 -0.0974144
0.690329 0.494895 -0.0806034
-0.373425 0.00039642 -0.0601219
-0.700784 0.453508 0.0815721
-0.375399 -0.479823 0.19582
0.349854 -0.216956 0.269545
-0.5586 -0.178142 0.276594
0.505131 0.657223 -0.0768708
0.369272 -0.122202 -0.233559
0.328598 -0.147852 0.131256
-0.58111 -0.453763 -0.0623384
-0.483692 -0.582924 -0.0179042
-0.669516 -0.344793 -0.188088
0.0607146 0.989865 -0.066042
-0.0844698 0.902763 -0.0914574
0.343706 -0.174388 -0.127243
-0.346749 -0.389035 -0.106998
0.670044 0.225154 -0.0831891
0.576438 -0.11958 0.117761
-0.539478 0.616251 0.021908
-0.457194 0.717058 -0.0236809
-0.578859 -0.461538 -0.148081
0.615135 -0.0206131 0.000230994
0.395278 0.768335 0.0320722
-0.579543 -0.102441 -0.131886
0.397644 -0.571693 0.0316247
-0.484064 0.803505 0.0838409
-0.556485 -0.051906 0.189425
-0.66873 -0.288421 0.0117825
0.598043 -0.0414299 0.132308
-0.327326 -0.176251 -0.190251
-0.429846 -0.321368 0.0624943
-0.646339 -0.276167 0.218112
0.464277 -0.125327 -0.260193
-0.697758 0.176975 0.0816031
0.583751 -0.160893 -0.160505
0.560105 -0.323012 -0.291834
-0.689007 -0.0718935 -0.022935
0.393742 0.0283152 -0.0321712
0.187546 0.879777 0.0864924
0.468865 -0.313312 0.305816
0.707241 -0.350521 -0.0849832
0.530448 -0.516838 -0.172021
0.679651 0.506031 0.0960279
0.32905 0.91538 -0.00861089
-0.490048 0.805453 -0.0634292
0.421419 0.846589 0.0933241
0.500587 0.0284023 0.0542404
0.574438 -0.268251 0.190022
-0.596064 -0.241068 0.0180756
-0.67672 -0.455371 0.0560084
0.578433 -0.491155 0.0329238
0.619907 -0.0524427 -0.1109
0.349065 -0.258215 -0.150301
0.635189 0.566659 -0.0839205
-0.696161 0.326095 0.0816205
-0.597367 0.65806 0.0826552
0.422534 -0.258693 0.0862405
0.413086 -0.278453 -0.120706
-0.35277 -0.233234 -0.139622
-0.403615 -0.0699018 -0.219973
0.576077 -0.383995 0.127345
-0.222525 0.866846 0.0115607
0.493805 0.669121 0.0826038
0.61649 0.428334 0.0545504
0.685516 -0.236037 0.0289063
0.669129 0.300501 0.00420679
-0.356638 -0.140562 -0.0246129
-0.425241 -0.304339 -0.11382
-0.672497 0.537093 0.0548314
-0.625085 0.639197 -0.0284511
-0.428915 -0.220157 0.024141
0.686254 -0.11023 -0.0415323
0.481467 -0.572917 0.0426124
0.630295 -0.160949 0.0955116
-0.377037 -0.420499 -0.262205
0.491067 -0.186672 -0.284953
0.453492 -0.42722 -0.236061
-0.585411 -0.442152 0.0992181
0.573111 -0.341068 0.238698
-0.658351 -0.443048 -0.139788
0.361315 -0.053521 -0.166798
-0.634488 -0.116396 0.0822657
0.515031 -0.555587 -0.098821
0.578476 -0.246678 0.0429137
0.68167 -0.342776 -0.152888
-0.338146 -0.1508 0.179748
-0.562221 -0.577724 0.0508236
0.423739 -0.385108 0.0367591
0.63683 -0.402598 -0.185855
-0.67161 0.263988 -0.0947076
-0.688773 -0.241532 -0.0453473
-0.697049 0.0877506 -0.0476026
0.329824 -0.0769233 -0.0445975
-0.523312 -0.478026 0.222509
0.648771 0.583456 0.0330052
-0.634583 0.346105 -0.0888292
0.644261 -0.248204 -0.0838255
-0.392389 -0.495211 -0.213941
-0.587432 -0.123227 0.168826
-0.660765 -0.0237616 0.0819906
0.679139 -0.239695 -0.169561
-0.434834 -0.0401182 0.175507
-0.428058 -0.346616 -0.00508944
-0.585876 -0.308658 0.115641
-0.603006 -0.478973 0.168492
-0.477933 0.694634 -0.0955776
-0.430229 -0.117575 0.24778
0.581081 -0.00202742 -0.056243
0.558201 -0.427408 -0.25158
0.572531 -0.11796 0.266995
-0.329329 -0.0999314 -0.125009
-0.44462 -0.408428 0.262358
0.637113 -0.484851 0.0855295
0.685512 -0.16359 0.0291882
0.571639 -0.194138 0.29894
0.584663 -0.313975 -0.201756
-0.581616 -0.518696 -0.04238
-0.425161 -0.23004 0.293654
-0.46389 -0.5064 -0.207613
0.47145 0.697409 0.0252202
0.333001 -0.445718 -0.03475
0.0976884 0.898944 0.0883447
-0.693969 -0.423781 -0.0692302
-0.582369 -0.0106862 -0.0265049
-0.361566 -0.324671 0.261278
0.647999 0.0645246 -0.0109882
0.554537 -0.207827 -0.288949
0.372269 -0.50367 -0.160991
-0.553551 0.733618 -0.0295991
0.582443 -0.109349 -0.109101
-0.427155 -0.213299 -0.0432654
-0.715985 0.365233 -0.0405151
-0.689495 -0.00873319 0.023645
-0.587576 -0.333537 0.178948
0.560257 -0.312453 0.308458
-0.430419 -0.141066 -0.266091
-0.717511 -0.317954 -0.0953528
-0.297545 0.928662 0.00627607
0.267908 0.940102 -0.0631405
0.634095 0.431748 -0.0839321
-0.590009 -0.32829 -0.273163
-0.58335 -0.0830692 0.0107624
-0.676123 -0.464737 -0.0209849
-0.67216 0.169066 -0.0421862
-0.486336 0.681831 0.0292793
0.628986 -0.216573 0.23339
-0.655782 0.069254 -0.0974405
0.470874 -0.0265022 0.184885
-0.182513 0.974373 -0.0485839
0.459013 -0.32501 -0.278258
-0.62775 -0.129968 -0.097147
0.692288 -0.417259 -0.0443824
-0.541849 0.680935 -0.096247
0.574366 -0.515435 0.185926
0.359206 -0.21055 -0.259775
0.155332 0.977643 0.0386627
0.344839 -0.415269 0.042687
-0.530175 -0.563244 0.105629
-0.497254 -0.424698 -0.272604
-0.533484 -0.320288 0.294191
-0.724474 -0.333237 0.0439241
-0.509588 -0.0494774 -0.202608
0.703477 -0.270288 0.130321
0.0304486 0.993526 0.0864653
0.35997 -0.155347 0.0750378
0.579246 -0.114986 0.0140087
0.494909 0.80131 -0.0237255
0.381331 0.861769 -0.0865787
-0.13597 0.894363 -0.0187248
-0.622017 0.410982 0.0228244
0.0731186 0.988191 0.00162795
0.449457 0.013156 -0.00395502
-0.692717 0.193433 -0.097827
0.357426 -0.388046 -0.0735809
0.42434 -0.223697 0.0182529
-0.414802 0.0207346 -0.0158553
-0.178186 0.97505 0.0444346
0.592632 -0.232575 -0.0177172
-0.421895 -0.406704 -0.0254267
0.575113 0.653979 0.0949332
-0.697812 0.206546 0.0252415
-0.64669 -0.411379 0.17636
0.425496 -0.359617 -0.0296485
0.62269 -0.460438 -0.152209
-0.0725531 0.988528 0.0368172
-0.631442 0.42533 -0.0971857
-0.697234 -0.162163 -0.0940837
-0.673296 -0.251864 -0.191374
-0.427792 -0.175516 0.068861
-0.0330431 0.907459 -0.0533599
-0.702403 -0.209499 0.113375
0.336487 -0.122564 -0.176983
-0.328494 -0.455161 -0.116017
-0.34522 -0.307586 -0.26679
-0.0114378 0.91035 0.0449519
-0.342073 -0.0482945 0.0714582
0.445349 -0.118319 0.240929
-0.536413 -0.314922 -0.309876
-0.698359 0.1143 0.0775391
-0.576883 -0.285237 -0.230016
-0.657232 -0.288421 -0.0846035
0.557238 -0.551645 0.124692
-0.398008 0.873896 0.0171165
-0.404079 -0.566785 -0.102559
0.556578 -0.028492 0.19047
0.668705 0.245708 0.0446613
0.113611 0.967592 -0.0893833
0.53498 -0.463085 0.241238
-0.12041 0.913716 0.0876501
-0.274035 0.938315 0.062439
0.58527 -0.21643 -0.221016
0.663998 0.551375 -0.0246429
0.57959 -0.435381 -0.0113612
-0.688299 -0.0292486 -0.0905836
0.510221 -0.47021 -0.222262
-0.602621 0.561577 -0.0968835
0.546949 -0.0377331 -0.187123
0.632715 0.0275721 0.0470067
0.465742 -0.194948 0.296681
-0.584178 -0.375926 0.0526836
0.69477 0.084667 -0.062166
-0.373225 -0.277105 0.126081
0.553597 0.587445 -0.00445878
-0.624966 -0.0640107 -0.119299
-0.68183 0.514095 -0.0549729
-0.526537 -0.425179 0.257855
0.412377 -0.0380721 0.196258
-0.352026 0.879722 -0.0942591
0.602737 0.671704 -0.0290992
0.693498 0.145444 0.0592092
0.164019 0.889704 -0.0333744
-0.327117 -0.403185 -0.172678
0.638146 -0.0474391 0.0492552
-0.665685 -0.219375 0.186489
-0.610817 -0.242375 -0.259543
-0.580142 -0.250476 -0.104915
-0.585132 -0.069832 0.0792703
0.694538 0.259032 -0.0401325
0.371641 -0.393722 0.268949
-0.662017 -0.288421 0.0778695
0.63645 -0.117271 -0.0839079
-0.380128 0.781424 0.0575797
0.448023 -0.520393 0.136049
-0.57771 -0.0694823 -0.202789
-0.588993 -0.247658 0.233003
0.325919 -0.455808 0.0849133
0.361668 -0.14189 0.254066
0.378921 -0.3693 0.0789119
0.373906 -0.162303 -0.0633992
-0.550476 -0.576817 -0.0709904
-0.521891 -0.218409 -0.303355
-0.667809 0.546034 -0.00371574
-0.583339 -0.525582 0.0238194
-0.698822 0.393398 0.0815924
-0.689312 -0.138576 0.00617435
0.574918 -0.345398 0.172269
0.425904 -0.234157 -0.0417464
0.650453 -0.395206 0.179239
-0.689489 -0.217137 0.023116
0.426627 0.787838 0.0933784
0.450722 0.76942 -0.0858522
-0.576747 -0.15383 -0.237712
0.647355 -0.0561163 -0.034007
-0.720335 -0.363586 -0.0339682
-0.696424 0.303285 -0.0483747
-0.627223 0.576838 0.0823422
0.200453 0.966994 -0.0316878
0.655253 0.44412 0.0957722
0.600799 -0.532636 -0.007553
0.423804 -0.317716 0.0361488
-0.577341 -0.493755 -0.205179
-0.555936 0.615184 0.0830882
-0.585819 0.521057 0.0320025
0.648147 -0.184849 -0.0837848
0.711884 -0.348745 0.0754437
-0.637664 -0.174742 0.0822328
0.581767 -0.37725 -0.0928776
-0.595524 -0.136712 -0.0334616
0.602882 0.634461 -0.0842595
0.645505 -0.280037 0.222616
0.47936 0.0142274 0.106658
0.686383 0.0190674 -0.053947
0.397005 -0.43209 -0.249059
0.384077 -0.278708 0.124964
-0.632346 -0.195938 -0.227187
0.59575 -0.13282 -0.224292
-0.499759 -0.128837 0.253889
-0.583178 0.0207879 0.0302248
-0.663579 -0.132696 -0.143117
0.333706 -0.318154 -0.188993
-0.646521 -0.11005 0.138456
-0.632929 0.0127733 -0.0417106
-0.434307 -0.402755 -0.273827
0.519303 0.773576 0.0437972
0.644083 0.332571 -0.0385902
0.542534 0.746331 -0.0632587
0.572945 0.54641 -0.0659248
-0.697671 0.0736881 0.0117806
0.609639 0.554958 0.0952946
-0.576739 -0.39886 0.271761
0.726858 -0.304368 0.0163919
-0.4182 0.752921 -0.00050914
-0.585728 -0.232425 0.103577
-0.580391 -0.330045 -0.093208
-0.655809 -0.399773 -0.181674
0.275076 0.882094 -0.0876919
0.212176 0.962005 0.0378674
-0.341143 -0.0487905 -0.103042
0.510796 -0.418231 0.269312
-0.332796 -0.47762 0.0514078
-0.362335 0.864803 0.0851158
0.643156 -0.236609 -0.218347
0.694351 0.16007 -0.0222336
-0.576192 -0.411244 -0.251332
0.687819 -0.196266 0.145426
-0.511404 0.00620415 0.0871764
0.604903 -0.471055 0.168501
0.358289 -0.541061 0.0583422
-0.448627 -0.0161529 0.117279
-0.584788 -0.189304 0.0663867
0.688015 -0.130405 0.0822802
-0.588335 0.513158 -0.0715988
-0.381353 -0.344038 -0.110451
0.58374 -0.411226 -0.169186
0.104551 0.898213 -0.0195027
-0.578515 -0.15115 -0.171776
-0.33807 -0.256403 0.214823
0.344872 -0.0248233 -0.0677703
0.236137 0.916642 0.0913837
-0.686415 -0.411572 0.102244
0.5292 0.0173556 -0.083998
0.714155 0.364699 0.0644357
0.490773 0.726606 -0.0854327
0.64771 0.327559 0.0482699
-0.364802 -0.123868 -0.238634
0.579914 -0.290138 -0.0127078
-0.490524 -0.517776 0.183583
0.630776 -0.278413 0.0446846
-0.431299 -0.313203 0.117731
-0.62585 -0.381194 0.219771
-0.390245 -0.213192 0.0990582
-0.471966 -0.551704 -0.141197
-0.345456 -0.0262988 -0.0201237
-0.580907 -0.16127 -0.0820072
-0.704408 0.432549 -0.0185145
0.647858 -0.00965545 -0.0837878
-0.395394 -0.37548 0.0742831
-0.0696352 0.988825 -0.019989
0.614948 -0.138851 0.216303
-0.713952 -0.304251 0.103
0.454304 -0.495273 0.206867
-0.443121 -0.567905 -0.0596733
-0.586367 -0.538925 0.140751
-0.343224 -0.179579 0.13237
0.500985 0.661625 -0.0220592
-0.332104 0.81616 -0.0268556
0.575251 -0.165715 0.164296
-0.334726 -0.444595 0.117258
-0.368106 -0.560608 0.00439764
-0.587852 -0.202722 0.186264
-0.346241 -0.536898 -0.0424459
0.365994 -0.533522 -0.095287
0.421692 -0.215042 0.11961
-0.381138 -0.525242 0.150499
-0.442293 -0.302814 -0.292528
-0.510848 -0.217575 0.288424
-0.352617 -0.235618 -0.273016
0.577789 -0.145266 0.0692523
0.563301 0.719482 0.0342229
-0.264798 0.9416 -0.0366914
0.68835 0.244337 0.096119
0.633637 -0.130504 -0.184863
-0.245946 0.85726 -0.0369355
-0.578062 -0.53842 -0.167124
0.00878512 0.996475 -0.0502599
0.693838 0.0606805 0.0267528
0.691252 -0.144506 -0.0891818
-0.587318 -0.408497 0.173483
-0.628431 -0.380883 -0.224778
0.0570004 0.904202 0.0414663
0.375239 -0.326233 0.292691
-0.326776 -0.321666 -0.217697
-0.361965 -0.521239 -0.142489
0.40154 -0.0177795 -0.159555
0.666283 -0.177769 -0.168836
0.592788 -0.146281 -0.0326672
-0.685781 -0.144612 0.0976167
-0.479314 0.0208625 -0.0110386
-0.51741 -0.135237 -0.271877
-0.63173 0.355378 0.00512227
-0.623055 -0.490327 -0.135551
0.577455 -0.352518 0.0771981
0.718 -0.22422 -0.0675329
-0.672647 0.257441 0.0043957
-0.428839 -0.580516 0.022622
0.685773 -0.0460634 0.00435598
0.538198 -0.0756843 0.237953
0.698087 0.364162 -0.0832617
0.278114 0.843972 -0.0272315
0.453504 -0.548789 -0.0740469
0.456842 -0.227683 -0.278053
-0.203014 0.889291 0.086785
0.677543 -0.30066 0.178112
0.501133 0.735571 0.0941582
-0.551669 0.594496 -0.0326478
0.323073 -0.330471 0.194875
0.312257 0.872905 0.092181
0.5762 -0.437108 0.120305
-0.340406 -0.354439 0.157894
-0.627542 -0.0403245 -0.046071
-0.579871 0.700757 -0.0626591
0.42641 -0.305481 -0.0631008
0.473509 -0.528218 -0.153724
0.39159 0.876878 0.0494935
-0.351459 -0.0611819 -0.157634
-0.179861 0.944217 -0.0924562
-0.617017 -0.288421 -0.00111365
0.5863 -0.173233 -0.260323
-0.684767 0.474438 -0.0977437
-0.407937 -0.188934 -0.086477
-0.340571 0.911306 -0.0222142
0.449314 -0.560843 0.0856205
-0.383461 -0.405089 0.0112003
-0.391928 -0.451612 0.237652
0.603173 0.477659 0.0401701
0.223677 0.865458 0.0494644
0.722478 -0.316252 -0.0445519
-0.550526 0.738083 0.0276285
-0.383863 0.777823 -0.0525026
0.465825 -0.0429963 -0.19457
-0.700217 -0.306743 -0.144145
-0.403753 0.00320098 -0.108472
-0.440935 -0.559543 0.0953876
0.398467 -0.480733 -0.211105
-0.331841 -0.281258 -0.177985
-0.578671 -0.235809 -0.161493
0.567484 -0.408103 0.27667
0.175038 0.912955 -0.0887391
0.689706 -0.42925 0.00676916
0.362515 -0.107185 0.139077
-0.523608 -0.00343116 -0.130499
0.601581 -0.385246 0.237774
0.627036 0.63144 0.0199656
0.438765 0.736442 0.0124355
0.662005 0.553481 0.0739993
0.350348 0.801384 0.0397274
0.339668 -0.464709 -0.147895
-0.449942 -0.225257 -0.30332
-0.585752 -0.125333 0.105839
-0.428917 0.790289 0.0844193
0.582144 -0.230425 -0.0986515
0.504665 0.000958302 -0.127274
0.502457 -0.110901 0.261607
-0.473211 0.704405 0.0839552
0.684987 -0.0782534 0.0793333
-0.307244 0.865141 0.0856932
0.691113 0.0246474 0.0715173
0.344616 -0.27181 0.268549
-0.730461 -0.246705 0.0051339
-0.374939 -0.546174 0.103151
0.333719 -0.243013 -0.197723
0.328797 -0.432537 0.173572
0.696806 0.468779 -0.0222249
0.686478 -0.276804 -0.0629768
0.570348 0.549453 0.0496717
0.341171 -0.105979 0.205506
0.624158 -0.316357 -0.236285
-0.640226 0.424231 0.0822057
-0.52296 -0.582952 0.0172231
-0.69149 -0.337763 0.145725
-0.605942 -0.139756 0.214354
0.151584 0.923572 0.0904982
0.402796 -0.148464 0.0114958
-0.578473 -0.413035 -0.166198
0.617126 -0.0722907 0.0953731
-0.403078 0.0114771 0.0652533
-0.653863 0.0633407 -0.0329394
0.13938 0.978898 0.0903704
-0.0458056 0.940459 -0.0910525
0.389771 0.0117852 0.102919
0.68876 -0.38393 0.115117
-0.58118 -0.401325 -0.0653328
0.58267 -0.488229 -0.130403
0.451878 -0.383921 -0.263687
0.363186 -0.491977 0.180771
0.591717 -0.196652 0.0696079
0.615591 -0.0807306 0.166927
0.358853 0.00424918 0.038283
-0.482214 -0.553836 0.12485
-0.596692 -0.275174 0.0779828
-0.64061 0.0230897 0.0808678
0.572796 -0.219547 0.254762
0.339167 -0.12459 -0.0769493
-0.697908 0.289987 0.034405
0.468215 -0.145557 0.28074
0.718252 -0.228762 0.0741785
-0.448761 -0.0718722 -0.196601
0.591478 -0.25806 0.0924939
-0.330639 -0.488672 -0.0459954
-0.397674 -0.371918 0.278983
0.335838 -0.103956 0.0246525
0.534987 0.619939 -0.0387006
0.445856 0.837424 -0.0195501
-0.339757 -0.203887 0.211141
0.562217 -0.0906991 -0.237587
-0.636622 0.612488 -0.0892806
0.598344 -0.410827 -0.220799
0.610453 -0.513125 -0.0754661
-0.397946 -0.163668 0.0297811
0.647875 -0.346992 -0.20125
-0.343961 -0.39006 0.121213
-0.415956 -0.180523 0.280673
-0.580051 -0.0416672 -0.114144
0.697581 0.459295 0.0626851
0.474838 -0.371979 0.290249
0.618965 -0.315998 0.24652
0.571019 -0.243401 0.309174
0.36958 -0.345869 -0.265799
-0.473694 -0.33212 0.292713
-0.418835 -0.279681 0.297071
-0.582741 -0.324893 -0.00363824
-0.333794 -0.203698 -0.234069
-0.473826 0.752793 -0.095535
0.333605 -0.4307 -0.0843574
0.368888 -0.0246112 0.150628
-0.338628 -0.355417 0.207829
-0.646919 -0.495342 0.0525809
-0.426555 -0.321272 -0.0632122
0.351513 -0.351614 0.116643
-0.426444 -0.263672 -0.0690248
-0.347862 -0.431021 -0.223163
0.685239 -0.0302174 0.0553332
0.416812 -0.112175 -0.253787
-0.669951 0.38977 -0.0975887
0.707585 0.407669 -0.0278457
0.420379 0.0202473 -0.073173
0.676322 -0.143649 0.128555
0.62127 0.406909 -0.0430494
-0.578728 -0.357936 -0.155941
0.394325 -0.207869 0.297732
0.341155 -0.04958 -0.110678
-0.648131 -0.0599584 0.013132
0.668862 0.176549 0.0296852
0.57702 -0.524045 0.0843321
0.578693 -0.367103 0.0299846
0.500108 -0.533536 0.154499
-0.580736 -0.487369 0.211703
0.681531 0.345581 0.0960483
0.345643 0.908495 0.0481953
-0.493398 0.755179 0.0837431
-0.676613 0.0247026 -0.0976585
-0.652472 0.320807 0.0596926
-0.688715 -0.113127 -0.0507859
-0.585672 -0.493378 0.112995
0.580996 -0.41474 -0.0611255
0.686133 -0.294382 -0.160061
0.725531 -0.21818 0.00671879
-0.655981 0.0666907 0.0643243
0.61988 -0.51689 0.0381047
-0.541664 -0.262571 0.293976
-0.642562 0.332653 -0.0423451
0.665956 0.122637 0.0944731
0.664907 -0.46039 0.0534625
0.583334 -0.292593 -0.146989
0.581874 -0.318144 -0.095346
-0.615988 -0.521073 -0.0826572
-0.714515 0.334298 0.00192245
-0.48286 0.811384 0.0189949
0.330723 -0.191354 0.153005
0.534459 -0.572954 0.0104621
-0.562887 -0.0240784 0.150112
-0.629479 -0.328658 0.232337
0.550846 -0.382017 -0.276258
-0.678914 -0.38459 0.143471
-0.563835 0.569092 0.0234483
-0.645324 0.595326 -0.00532195
-0.556609 0.684325 0.0830814
0.503248 0.0308523 -0.0184932
-0.703896 0.438698 0.0355675
0.264629 0.849136 0.029443
0.363065 -0.218673 -0.124482
-0.607741 -0.0222513 0.0825467
0.582003 -0.164744 0.258984
0.330465 -0.495809 -0.010903
0.187081 0.880268 0.0138576
0.686056 -0.241665 -0.0226521
-0.60307 -0.287682 0.258161
0.375054 -0.0805649 -0.209718
-0.705269 -0.210502 -0.11521
0.377743 -0.348795 -0.0976197
-0.579978 -0.4336 -0.106142
-0.377679 -0.293221 -0.128564
-0.339303 -0.128441 -0.0678419
0.0754892 0.941612 0.089701
0.325987 -0.371462 0.158105
0.655109 0.0876867 0.0356257
0.412158 -0.233726 -0.298607
0.632202 -0.0858563 -0.143142
0.536383 -0.253876 -0.295723
-0.355337 -0.438074 0.20784
0.638256 -0.123413 0.176243
0.449446 0.00495541 0.0645345
0.583196 -0.0661246 -0.138073
-0.208674 0.872023 -0.0768659
-0.579882 -0.498663 -0.107994
0.391082 0.815203 -0.086477
-0.582252 -0.262468 -0.0240035
0.00598153 0.971416 -0.09051
0.617154 0.00549986 0.095374
0.334935 -0.502319 0.0874583
0.573475 0.707522 -0.0105484
-0.428935 -0.276123 0.0264641
0.512888 -0.324495 -0.292663
-0.537379 -0.560011 -0.128597
0.338212 -0.247516 0.156607
0.579547 -0.0691984 0.00250855
-0.247433 0.905253 0.086319
-0.023866 0.994754 0.0428962
0.577249 -0.513283 -0.177014
-0.0902736 0.900275 0.0391161
-0.437046 -0.508466 0.188851
0.318023 0.824854 0.0850296
0.624264 0.014645 -0.0476878
-0.328214 -0.150025 -0.151262
-0.630781 -0.332768 -0.237491
0.575569 -0.23931 0.151259
-0.688858 -0.0272113 -0.0372378
0.595468 0.496244 -0.0330779
0.425434 -0.167659 -0.0752132
0.57845 -0.022074 0.0436141
-0.348461 -0.100483 0.172186
-0.596094 -0.194419 0.020946
0.365552 0.790599 -0.0145271
-0.384481 -0.396133 -0.0513003
0.239532 0.859517 -0.0485849
0.367765 -0.522544 0.139451
0.694597 0.208942 -0.0456505
-0.503694 -0.489759 -0.22533
0.422144 -0.467172 0.228999
-0.550093 -0.362244 0.282652
-0.355035 -0.14156 0.0365896
-0.713265 -0.377624 0.0523949
0.420888 0.750097 -0.0498704
-0.610424 0.533455 0.0825176
-0.656653 -0.0720902 0.0820342
-0.536316 -0.0852121 0.223286
0.397647 -0.571406 -0.0162108
0.433092 -0.0724709 0.219605
-0.352748 -0.049054 0.116648
-0.622927 -0.0863736 -0.159948
-0.609458 0.467109 -0.0589487
0.0725771 0.925914 -0.0898125
-0.399061 0.808312 -0.0947522
-0.697461 0.470073 -0.0533435
-0.643678 0.540364 -0.0973136
0.634084 -0.213023 0.0955513
0.52261 0.633716 0.0755977
-0.382347 -0.167183 -0.0547888
-0.427425 0.851779 -0.0398612
-0.377667 -0.296271 -0.298243
-0.337401 -0.126767 0.0934472
0.461871 0.824778 0.0898841
-0.582511 -0.474501 -0.0106811
-0.194133 0.878075 -0.0229476
-0.697544 0.164718 -0.00037642
-0.727934 -0.261933 -0.0584827
0.263624 0.941358 0.046781
0.333624 -0.397545 -0.178205
0.575781 -0.0802995 0.143926
-0.59853 0.678222 -0.0272295
0.708008 0.327127 -0.04272
-0.359424 -0.216409 0.253314
0.37495 -0.258754 -0.280379
0.40346 -0.56178 -0.0761326
-0.27973 0.906291 -0.0935025
-0.583121 -0.405978 0.0131688
-0.614621 0.453981 0.0367959
0.330776 0.816499 -0.0501959
0.635024 0.485103 0.095561
0.531052 0.69393 -0.0850113
-0.491795 0.00669046 -0.0993393
-0.370007 -0.0587348 0.166329
-0.673266 0.211826 0.06337
-0.432571 -0.0816402 0.219735
-0.281142 0.843054 -0.0622425
-0.086449 0.961164 -0.0914778
0.464716 -0.0858524 -0.237383
-0.625165 -0.46113 -0.170504
-0.67683 -0.297154 -0.187619
-0.515822 0.643945 -0.0908888
-0.0216107 0.936765 0.0886838
0.528883 -0.568824 0.0612417
0.311543 0.829992 0.0378848
0.573454 -0.477546 0.221821
-0.514951 -0.353787 -0.300474
-0.690464 0.497388 0.0422152
0.583038 -0.20076 -0.133169
-0.497538 -0.0387435 0.177315
0.491071 -0.567073 -0.0565065
0.443172 -0.28009 0.286424
-0.498098 0.020258 0.035089
0.0456872 0.991637 0.0439357
0.57325 -0.289801 0.234775
0.694066 0.260197 0.00504574
0.581737 -0.0388888 -0.0823588
-0.688886 -0.287793 -0.0345727
0.584819 -0.268894 -0.204614
0.704209 0.323092 0.0356906
0.584618 -0.360415 -0.201284
-0.697381 0.119645 -0.0159202
0.580589 -0.319953 -0.046287
-0.462377 -0.218236 0.271526
-0.624271 -0.288421 0.0431433
0.461554 0.00961515 -0.113458
-0.589823 -0.215213 0.263836
0.0969114 0.985208 -0.0401228
0.297192 0.928022 0.0201361
-0.690084 -0.240343 0.0799145
0.379907 -0.154113 -0.262906
0.384917 -0.193842 0.0986455
-0.523893 0.769794 -0.0583364
-0.0252368 0.908531 0.00259283
0.580713 -0.55214 -0.0574432
-0.69795 0.0329177 0.0383711
-0.178156 0.974988 -0.00431056
-0.306632 0.918957 0.0857
-0.720094 -0.21079 -0.0585932
-0.4808 -0.451494 0.243835
-0.586555 -0.445899 0.143882
0.331959 -0.0612672 0.117482
-0.449146 0.727521 0.0186471
0.163831 0.976705 -0.071467
0.694379 0.0608316 -0.0248396
0.327789 -0.0606908 0.0321623
-0.376251 -0.124995 0.231153
-0.262462 0.850938 0.0332832
0.709186 0.394931 0.0325431
-0.460575 0.794976 -0.0953964
-0.709245 -0.382426 -0.072399
-0.389081 -0.459878 -0.246167
-0.65177 -0.0779599 -0.0815092
0.402674 -0.324946 -0.293337
0.369522 -0.0519128 0.191731
0.401014 -0.438259 0.254701
-0.32816 -0.231317 -0.185205
-0.338234 -0.452816 0.0153766
-0.316399 0.828214 0.0354445
0.68051 -0.0978796 -0.0834458
0.694989 0.185856 -0.0830767
-0.696589 0.0894614 -0.0914729
-0.583004 0.623254 -0.0966781
-0.429902 -0.361198 0.097237
-0.474659 -0.127451 -0.266278
0.574409 -0.388719 0.187793
-0.595051 -0.215102 -0.0787298
0.668239 0.543055 -0.0673915
-0.636185 -0.486824 0.106227
0.583551 -0.106901 -0.153544
-0.313221 0.859865 -0.0938532
-0.429168 -0.357107 0.0375603
0.664684 0.114948 -0.0248328
-0.580672 -0.107175 -0.0886306
0.579254 -0.570037 -0.00221804
-0.58899 -0.0796233 0.181346
-0.675389 -0.307489 0.181258
-0.432832 0.848407 0.0392973
0.69368 0.210055 0.0418209
-0.343936 -0.267485 0.165129
0.55276 0.588231 0.0412871
-0.642017 -0.164302 -0.199257
-0.407634 -0.039285 -0.18969
0.577361 -0.460486 0.0730644
0.361312 0.853037 0.0926944
0.00450804 0.911004 -0.032237
-0.578874 -0.0635651 -0.158487
-0.585208 -0.34049 0.0864062
0.323246 -0.286888 0.2182
-0.58845 -0.306093 0.212297
0.615969 -0.417836 0.207109
-0.384314 -0.219532 -0.110777
0.580489 -0.0386679 -0.03351
-0.122568 0.93763 -0.0918566
0.503612 -0.110602 -0.250642
0.728689 -0.261351 0.0173112
-0.428462 0.744949 -0.053697
-0.138206 0.980034 -0.0456292
-0.362784 -0.136598 -0.129483
0.62354 -0.114788 0.0954409
-0.60196 -0.544067 -0.0102074
0.364316 -0.550432 0.000963377
0.342949 -0.42976 0.214081
-0.568663 -0.000117024 -0.125879
-0.517824 -0.541472 0.145384
0.718535 -0.346734 0.0330846
-0.329587 -0.353849 -0.173252
0.701207 -0.138301 -0.00167844
-0.627467 -0.173482 -0.0971441
0.362419 0.00626227 -0.0130769
0.584715 -0.179173 -0.199967
0.410252 -0.511174 -0.183447
-0.728788 -0.33503 0.000255213
0.525417 -0.287659 0.30798
0.619037 0.417138 -0.00121246
-0.210436 0.911665 -0.0927759
0.671911 0.456432 -0.0835359
0.524877 0.0165418 0.0990892
0.681579 -0.228488 0.0960483
-0.356319 -0.538813 0.065449
-0.399375 -0.201211 -0.295122
0.690984 -0.399428 -0.0875039
-0.336035 -0.434095 -0.0797936
-0.424049 -0.517161 -0.19205
-0.348484 -0.470507 0.164212
-0.332753 -0.0614396 0.000204837
0.586379 -0.355497 -0.282444
0.472782 -0.552389 -0.111753
-0.490046 0.0193299 -0.0521151
-0.619557 0.653052 0.0467897
0.515686 -0.200322 0.299419
0.656396 0.33131 -0.0836986
0.574148 -0.13363 0.205833
-0.38028 -0.518631 -0.18068
0.57497 -0.441213 0.164929
-0.585918 -0.305116 0.292817
-0.446601 -0.553544 -0.0994207
-0.512993 0.648809 0.0158794
0.682071 0.512122 -0.0419266
0.708271 -0.322224 0.108299
0.46831 0.821153 -0.0553372
0.685275 -0.275525 0.0518495
-0.367353 -0.545751 -0.102625
-0.0709856 0.967783 0.0881674
0.427048 -0.258573 -0.0861128
-0.689823 -0.0381787 0.0548972
0.623803 0.38681 0.0517003
-0.580802 -0.00984726 -0.0863521
0.364174 0.897874 -0.0534713
-0.39244 -0.387829 -0.286409
0.33412 -0.442958 0.00735817
-0.581416 -0.344703 -0.053637
-0.587336 -0.165247 0.165564
-0.666594 0.305714 -0.0968437
-0.584642 -0.473414 0.0710785
-0.645238 -0.245778 -0.226374
-0.631961 -0.12305 0.175689
-0.452503 -0.00194314 -0.111518
-0.697334 0.0454341 -0.0203707
0.629681 -0.47318 0.125204
-0.559459 0.0208043 -0.0423315
0.57691 -0.0207555 0.102458
0.0691167 0.902772 -0.0452446
-0.731621 -0.287843 0.0135321
-0.588975 -0.17493 0.229803
-0.696881 0.131488 -0.0635871
-0.576816 -0.447371 -0.226501
0.122352 0.981901 0.0039646
-0.595559 -0.0929815 -0.0300767
0.32343 -0.205335 0.205592
-0.411659 0.0173701 -0.0575101
0.508824 -0.325844 0.303511
0.558423 0.640133 -0.0847245
0.521583 0.698118 0.0943723
0.693513 0.103664 0.0577715
0.583573 -0.0248582 -0.152088
0.349024 0.824261 -0.0869178
0.686297 -0.151732 -0.0456602
0.631072 -0.278413 -0.0582754
-0.44046 -0.574664 -0.0186221
-0.589106 -0.373887 0.240828
-0.676291 -0.242317 -0.0976546
0.415654 0.859963 -0.0564261
0.574243 -0.31146 0.196262
0.298695 0.927664 -0.0381387
0.686549 -0.192682 -0.0697736
0.5828 -0.396634 -0.13029
-0.459547 -0.369713 0.264546
0.325841 -0.109848 0.114702
0.443818 -0.333814 0.279023
0.42768 0.74424 0.0605102
-0.596483 -0.229661 0.0580021
-0.697989 0.249222 0.0422249
-0.443769 -0.0417718 -0.168466
-0.577922 -0.300673 -0.190972
-0.712944 0.380273 -0.079003
0.700396 -0.244311 -0.129468
0.509997 -0.427735 -0.252634
0.714003 -0.185579 0.0525761
-0.673078 0.174545 0.0454431
0.610877 0.660325 0.075155
0.367821 -0.384807 -0.252002
-0.672168 0.263776 -0.0414151
-0.57583 -0.223304 -0.270308
0.636788 0.404878 0.0955794
0.581125 -0.456321 -0.0705864
0.39269 0.769884 0.0785525
-0.674052 -0.259576 0.183736
-0.410431 -0.10766 -0.252824
-0.619808 -0.439493 0.189714
-0.718348 -0.213668 0.0664827
-0.35625 -0.357535 -0.267923
0.396615 -0.123685 0.265764
0.585956 -0.318892 -0.251222
-0.338366 -0.139338 -0.211261
0.627721 0.0199218 0.00696195
-0.480781 0.68769 -0.0470358
0.615055 -0.0331101 0.0817629
-0.671772 0.226049 -0.079252
-0.485132 -0.413477 0.26568
0.52894 -0.537296 -0.136613
0.455339 -0.281811 -0.281372
0.32766 -0.104039 0.16023
0.401533 0.764036 -0.00809454
0.509484 -0.0342068 0.195731
0.581319 -0.118701 -0.0656128
0.459644 -0.406503 0.274725
-0.570037 -0.565237 0.0972505
0.638616 0.0391769 0.0871163
-0.227195 0.956644 -0.0413763
0.583403 -0.450491 -0.156391
-0.52993 0.763774 0.0515918
0.577388 -0.309557 0.0762342
0.643969 -0.0497254 0.00600869
-0.517142 -0.582593 -0.0484648
0.49914 -0.0191028 -0.162188
-0.434142 -0.481405 -0.221064
-0.685779 -0.450116 0.0156692
0.669469 -0.346422 0.176904
0.571549 -0.350032 0.298089
-0.572063 -0.137119 -0.274372
0.339422 -0.177811 0.245694
-0.0833237 0.901042 -0.0509855
-0.369892 -0.0697719 -0.197594
-0.726099 -0.295335 0.0579856
-0.613379 -0.280534 -0.0969958
-0.362349 -0.467224 -0.212439
-0.547259 -0.0388626 -0.192477
0.685505 -0.278413 -0.00584798
-0.457917 0.830147 0.0684928
-0.340797 -0.0383783 -0.058349
-0.584881 -0.405303 0.0803379
0.433884 -0.564375 0.0485393
0.337269 -0.197863 -0.159365
0.685775 0.0505511 -0.0833906
-0.616684 -0.00583175 -0.00266173
-0.564972 0.564571 -0.0648175
-0.521327 -0.0235533 -0.165305
-0.577232 -0.107785 -0.219969
0.627817 -0.506505 -0.0397692
0.576943 -0.170038 0.100942
-0.240831 0.95154 0.0440364
-0.581401 -0.252044 -0.0628179
0.578781 0.022676 0.0322021
0.660274 0.099865 -0.0761229
0.42749 -0.3179 -0.104627
-0.568414 -0.142551 0.259983
-0.576188 -0.362513 -0.25281
-0.46094 0.00772026 0.0829739
0.643528 0.525203 0.0956501
-0.672999 0.0916383 0.0379178
-0.529604 -0.0737942 -0.227442
-0.5839 -0.276329 0.0327969
-0.0901874 0.986146 -0.0603398
-0.0211273 0.995017 -0.0216562
-0.367223 -0.0238526 -0.121
0.373419 -0.280339 -0.125735
0.668483 0.406618 -0.0835717
0.485273 -0.00197608 0.14275
-0.615133 0.614961 0.0824692
-0.504913 -0.170534 0.275972
0.33425 -0.500981 -0.0503674
-0.374948 0.891167 0.0532329
-0.595801 -0.0428733 -0.00703278
-0.688689 -0.166005 -0.0532834
-0.496516 -0.315374 -0.308832
-0.459852 -0.286148 0.278419
-0.574905 -0.351206 -0.302125
-0.625098 0.386714 -0.0894153
0.668721 0.292099 0.0432004
-0.673365 0.145612 0.07289
0.334888 -0.363035 -0.158279
-0.646745 -0.167027 0.186138
0.425068 -0.396401 -0.014313
0.495466 -0.466016 0.237241
0.373743 -0.279767 0.296227
0.610364 -0.206362 -0.0841811
0.346727 -0.398314 0.2383
0.42359 0.853307 0.0483368
-0.389788 0.808714 0.0848291
-0.641337 -0.130917 -0.176015
0.669799 0.164878 -0.0598342
-0.427262 -0.348576 -0.294474
0.370626 -0.316949 0.120219
-0.548574 0.0160942 0.0491757
0.447692 -0.245799 0.305945
-0.409128 0.865001 -0.073701
-0.601918 -0.197783 -0.254656
0.648754 -0.447074 -0.125401
-0.689339 -0.0455209 0.00873672
-0.519246 -0.180174 -0.293037
0.693689 -0.235484 0.146831
-0.37814 0.842007 -0.0945323
0.0408095 0.992355 -0.0272363
-0.689413 -0.178178 0.0157786
0.586278 -0.213384 -0.260526
-0.333818 -0.0922511 0.0742889
-0.581144 -0.555189 -0.0582522
0.238437 0.92759 -0.0880755
0.458716 -0.180535 -0.262918
-0.689222 -0.247355 -0.00241566
-0.689712 -0.128379 0.0443842
-0.689896 0.000983489 0.0619731
0.603775 0.670938 -0.0690258
-0.335719 -0.104849 -0.0240907
0.674099 -0.44999 -0.0317062
0.661654 -0.371103 -0.171854
-0.596535 -0.104005 0.0630649
0.677191 -0.42425 0.0924832
-0.461748 -0.145112 0.245519
0.302441 0.92637 -0.0873712
-0.694568 -0.262777 -0.158214
-0.631586 -0.0510245 0.0600365
-0.590098 -0.278807 -0.276284
0.669907 0.266421 -0.0700371
-0.582671 -0.171842 -0.010529
-0.335924 -0.140164 0.130469
0.573897 -0.053767 0.216624
0.411773 0.0307371 0.00272943
-0.577419 -0.250801 -0.210982
0.572295 -0.311961 0.271005
-0.381908 -0.298414 0.282355
-0.332557 -0.202157 -0.15919
0.586361 -0.283568 -0.294414
0.579154 0.0307981 -0.0277032
-0.17249 0.914016 0.0871047
-0.386814 -0.225832 0.281912
0.235722 0.952906 -0.0415517
0.42486 -0.32948 -0.00455178
0.423773 -0.27865 0.0383915
0.33375 -0.284041 -0.20813
0.136186 0.894055 0.0686207
0.575066 0.538219 0.0881006
-0.583304 0.698086 0.0580922
-0.689699 -0.26154 0.043057
-0.686707 -0.216753 -0.161759
0.558215 -0.155046 0.288389
0.540381 0.747346 0.0635647
0.614731 0.444637 -0.0505263
-0.430446 -0.213399 0.0824275
0.686314 -0.0716252 -0.0472548
0.56485 0.718625 -0.0473778
-0.443194 -0.177777 -0.274625
0.710714 -0.367391 -0.0500632
0.574606 -0.210052 0.185205
-0.666414 0.496684 0.0819315
-0.538973 -0.501826 -0.214208
-0.672585 0.0155362 -0.00157865
0.603161 0.58859 -0.0842566
0.385263 -0.389524 0.0341948
0.685807 -0.20892 0.00114647
0.581019 -0.226108 -0.0601161
-0.523922 0.705201 0.0834244
0.577427 -0.10236 0.083062
-0.553521 0.733065 -0.0753615
-0.395962 -0.259285 -0.124763
-0.330013 -0.412131 -0.135103
0.647052 0.58811 -0.00535489
-0.71851 0.352654 0.0645664
-0.348902 -0.308384 0.15288
0.466737 0.767166 0.0937988
0.391241 -0.377098 -0.0583771
0.476739 0.0308707 0.0169198
0.533495 0.0308291 0.0341221
-0.427977 -0.235652 -0.011242
-0.47295 -0.582915 0.0192081
0.465982 0.0308795 -0.0342259
0.50897 -0.572935 -0.018501
0.471686 0.69662 0.0637827
-0.471981 0.819077 -0.0229214
0.573392 -0.25149 0.230428
0.573315 -0.091447 0.237759
0.575325 -0.526236 0.149019
0.670674 0.306295 -0.047621
-0.428851 -0.31653 0.0243657
0.423173 -0.528794 -0.151821
-0.47097 -0.532497 -0.174448
0.621548 -0.0308345 -0.0470581
-0.672563 0.207959 -0.00366343
0.576293 -0.342857 0.1171
-0.352115 0.801168 -0.0588179
-0.119097 0.896441 -0.076151
-0.372146 0.892789 -0.00402962
0.576767 -0.0622224 0.108074
0.416628 0.000718049 -0.129533
0.423152 -0.227845 0.0635231
-0.461231 -0.112889 0.224848
0.447001 -0.520464 0.175064
-0.338849 -0.391016 0.193756
0.324967 -0.43749 0.135809
0.592844 -0.184139 -0.0379479
-0.534142 0.621862 -0.0527322
-0.582261 -0.416836 -0.0234368
0.532178 0.0282377 -0.0432829
-0.667869 -0.454894 -0.0967711
0.686106 -0.0112481 -0.0274552
0.0832945 0.900882 0.0140242
-0.644551 0.0351372 -0.0798759
0.584571 -0.0424945 -0.190873
0.578393 -0.529243 0.0317768
0.684489 -0.161327 -0.122688
-0.4253 -0.345665 -0.110422
0.436651 -0.14951 -0.270172
0.339622 -0.242624 -0.235299
0.347666 -0.171574 0.107141
0.600195 -0.0744026 -0.0842876
-0.547203 -0.417488 -0.278097
0.366781 0.895493 0.00611525
0.486651 0.807112 0.0128782
-0.366402 -0.230152 0.123256
0.611463 -0.152993 -0.0841694
-0.34192 -0.364413 -0.135461
0.344898 -0.335282 -0.239006
0.421843 -0.297506 0.111566
-0.584814 -0.139303 0.0704294
-0.627876 -0.52101 -0.0466619
-0.0963517 0.985528 0.0661659
0.609581 0.538795 -0.0841888
-0.696848 -0.430054 -0.020763
0.364424 -0.416188 -0.231159
-0.696173 -0.415824 0.0659489
-0.423503 0.0198579 0.0226791
-0.646748 -0.238553 0.214215
0.656765 -0.203222 0.199391
0.654842 -0.0733273 -0.0706087
0.32704 -0.283826 0.180749
0.570401 0.0160739 -0.0875921
-0.491138 -0.463918 -0.24979
0.675366 0.382793 0.0959834
-0.664149 -0.139846 -0.0975277
-0.425794 -0.0112742 -0.13644
0.401837 -0.039411 -0.190411
-0.698374 0.284292 0.0789322
0.684827 -0.265995 0.0946843
0.152914 0.943435 -0.0889716
0.587849 0.688814 0.0666861
0.695609 0.473258 0.0171291
0.483557 0.683604 -0.0610238
0.584945 -0.0575752 0.176447
0.494215 0.669229 0.0350221
0.658598 0.317973 0.085109
-0.619137 0.653036 0.00590115
0.34611 -0.146858 -0.217378
0.68622 0.15439 0.0960967
-0.58845 -0.347475 0.213737
0.603431 -0.278413 0.0139797
-0.579799 -0.157061 -0.120587
0.444797 -0.00313859 0.109198
0.642209 0.600192 -0.0688417
-0.683006 -0.203639 0.0817581
0.479153 -0.355763 -0.285159
-0.408828 -0.26745 0.117912
-0.696767 0.0561041 -0.0745729
-0.688382 -0.203431 -0.0826146
-0.578569 -0.107004 -0.168956
-0.621388 -0.522587 0.051244
0.571605 0.00535454 0.132201
-0.721831 -0.200794 0.0140523
0.690608 -0.210613 -0.142205
0.344961 -0.128926 0.0508575
-0.587363 0.516162 -0.0337222
-0.677598 -0.40727 -0.135542
-0.653341 -0.495191 -0.0277042
-0.587064 -0.302894 0.157785
-0.419282 -0.163281 -0.0520153
0.416941 -0.540828 0.136811
0.616305 -0.490702 -0.114696
0.454516 -0.572896 0.0169654
0.536989 -0.531551 0.158952
-0.42886 -0.182387 0.0209722
-0.561121 -0.230828 -0.307703
0.412917 -0.328158 0.298911
-0.67335 0.433313 -0.0976246
-0.688974 -0.209776 -0.0260844
0.645324 -0.489854 0.0372677
0.580127 -0.110683 -0.0228565
0.560211 -0.441193 0.257365
0.668733 0.0381151 0.0420951
0.579359 -0.500392 -0.00295914
-0.447765 -0.114284 -0.235968
-0.584205 -0.0599225 0.043586
-0.624559 -0.0562839 0.0960192
-0.41022 -0.144127 0.26404
0.37988 0.01632 0.0662279
-0.374863 -0.0136293 0.0943471
-0.578555 -0.19761 -0.167018
0.396172 -0.230441 -0.113019
0.422789 -0.378969 0.0731913
-0.71838 -0.261733 0.0919679
0.575087 -0.112901 0.169508
-0.360683 -0.360168 0.251069
-0.189174 0.880246 0.0210487
0.368588 -0.171081 0.275592
0.631298 -0.429624 0.175663
0.579735 -0.0113721 -0.00468741
-0.61862 0.428418 -0.00952443
-0.683903 -0.160683 -0.128461
0.626517 -0.372846 -0.216626
-0.675638 -0.373952 -0.164323
0.59271 -0.278413 0.0617822
-0.585915 -0.0344984 0.109595
0.495583 0.800221 0.0530266
-0.516281 -0.277703 -0.309349
-0.528344 0.630502 0.0631443
0.664001 -0.0529368 0.0958642
-0.430502 -0.293428 0.0867385
0.579484 -0.344561 0.000980815
-0.577627 -0.387087 -0.1989
-0.67478 -0.113324 0.0818443
-0.672523 0.0939623 -0.00752782
-0.610086 -0.0349711 -0.0784518
-0.641215 0.603525 -0.0408367
0.553829 -0.487281 -0.204074
0.671286 -0.44286 -0.071624
-0.709675 0.400877 -0.0460458
0.655192 -0.312395 0.208492
-0.142617 0.979601 0.0516877
-0.214279 0.870298 0.047026
-0.684053 -0.213878 0.155366
-0.508718 -0.104594 -0.253956
-0.682837 0.510924 -0.0969009
0.576835 -0.400526 0.0948257
0.543782 -0.174091 -0.28019
-0.377718 0.00836158 -0.0247902
0.384706 0.0156254 -0.0673207
0.656246 -0.0963344 -0.110582
0.475963 0.692402 -0.017725
0.237385 0.872947 0.0913963
0.611673 -0.193337 -0.238056
0.350297 -0.368497 -0.111085
-0.371166 -0.401587 0.0466066
0.585912 0.599543 0.0950466
-0.531127 -0.00386322 0.115956
-0.404747 -0.521828 0.179036
-0.344078 -0.285213 0.236005
-0.563687 -0.464606 0.234127
-0.586478 -0.335984 0.139396
0.534381 -0.0128214 -0.150336
0.578893 -0.213967 0.0274057
0.511299 -0.0146426 0.165345
-0.698158 0.0755365 0.0583334
0.333367 0.913242 0.0888649
0.395837 0.821051 0.0930558
0.69837 0.445881 0.0962246
-0.477908 -0.578083 -0.0641674
0.687954 -0.366686 -0.126572
-0.59645 0.498636 0.0711395
-0.501748 0.797152 -0.0216524
-0.721756 -0.336964 -0.0649812
0.389843 -0.201851 -0.284144
0.693523 0.268894 0.0568047
0.575172 -0.293798 0.164589
0.553959 -0.561287 0.0901069
0.381288 -0.533087 -0.127925
0.582491 -0.27174 -0.1176
-0.159163 0.954527 0.0872442
0.354374 -0.164063 -0.0944209
0.331522 -0.0448709 -0.0282448
0.619642 0.449499 0.0954002
-0.350143 0.907266 -0.0711386
0.702048 -0.312987 -0.120879
0.57265 -0.373044 0.255401
-0.353576 -0.271443 -0.276502
-0.373834 -0.377056 -0.0865381
0.689137 0.494244 0.0615439
0.638781 0.60474 0.0606129
-0.518691 -0.572128 0.072735
-0.365269 -0.375584 0.0938947
0.578323 -0.447463 0.0395743
0.550048 -0.553286 -0.106591
-0.482346 -0.488219 0.213357
0.584399 -0.123439 -0.185349
-0.585798 -0.269166 0.111607
-0.560394 -0.212734 0.285819
-0.633775 -0.288421 -0.047249
0.627565 -0.510151 0.000246494
-0.589824 -0.498018 -0.171886
-0.517307 0.0208344 -0.02895
0.443079 0.734447 -0.0859326
0.686527 -0.015098 -0.0676114
-0.587122 -0.511034 0.168851
0.514759 -0.0483352 -0.198595
0.52484 0.767843 -0.0408474
-0.577421 0.677638 -0.09662
-0.584663 0.00229713 0.0607427
-0.666201 -0.481087 0.00915426
-0.336637 -0.190108 0.174452
-0.399903 -0.423327 0.257853
0.460336 -0.461926 -0.231817
0.400341 0.771129 -0.0863802
0.584006 -0.125459 -0.257085
-0.460386 -0.0806773 0.191694
0.333126 -0.153069 -0.153691
-0.354792 -0.201702 -0.119466
0.615206 -0.283442 -0.247093
0.176616 0.884319 0.0475889
0.419117 -0.248881 0.130155
-0.587812 -0.377892 0.191499
0.703715 0.424346 0.0623732
-0.696883 0.183094 -0.0634089
-0.618641 0.425615 -0.054473
-0.396049 -0.311601 0.114298
-0.595703 -0.221214 -0.0164763
-0.346648 -0.173084 -0.246448
0.649935 -0.416167 -0.155859
-0.596007 -0.116111 0.0126563
-0.476704 0.693286 -0.00278185
-0.00837261 0.916576 -0.0906601
0.537765 -0.111755 0.26301
0.575083 -0.487635 0.15932
-0.39794 -0.54852 0.129819
0.496946 -0.220306 -0.293813
-0.454395 0.0176074 -0.0398002
-0.3398 -0.496046 -0.131616
0.664071 0.550405 0.0106074
0.477209 -0.279064 0.306718
-0.456307 0.830252 -0.0716521
0.716015 0.360866 -0.0489453
0.441254 -0.165975 0.270895
-0.34207 0.809182 0.0206292
0.422609 0.799503 -0.0861467
0.662214 -0.0769437 0.0525092
-0.592151 0.588287 0.0827094
-0.101909 0.94367 0.0878429
0.717166 -0.183984 0.00702201
0.503726 -0.502623 -0.190003
-0.646442 -0.0918345 -0.121258
0.596856 0.492236 0.00878709
0.67094 -0.172931 0.0959369
0.395293 -0.494185 0.205417
0.451095 0.72222 0.0462636
-0.595115 -0.463425 -0.201136
-0.678902 -0.45314 -0.0571313
0.442646 -0.219415 0.283284
0.612481 0.459444 -0.0837839
0.313472 0.921358 0.0539808
0.665951 -0.264468 -0.193016
-0.688456 -0.0609775 -0.0755697
-0.710229 0.400621 0.00252211
0.0198929 0.908957 0.0292464
0.575269 -0.453733 -0.235937
-0.65222 0.581658 0.0582569
-0.393145 -0.180279 0.0666473
-0.424966 0.748208 0.0347615
-0.348814 -0.156051 0.213976
-0.340357 -0.509045 0.0746677
-0.511079 0.785214 -0.0870176
-0.665139 0.344654 0.0819451
0.611484 -0.108893 0.198579
-0.401702 0.871538 0.0642826
0.257443 0.852465 -0.0777776
0.591954 -0.0933119 0.0469398
0.655722 0.491177 -0.0837054
0.527714 0.629332 -0.0720967
0.421415 -0.570073 -0.0417503
0.55543 0.584532 -0.0527079
-0.583981 -0.419734 0.0463305
0.330543 -0.0476648 0.0643988
0.69332 0.0591198 0.0762943
0.264752 0.894546 0.091683
0.697925 0.464463 -0.0567767
-0.45703 -0.432591 -0.266976
-0.598424 0.490464 -0.0960222
-0.329454 -0.472134 -0.0766121
-0.636867 -0.238255 -0.0972419
0.349368 -0.502852 -0.119083
-0.70596 -0.404296 -0.043
-0.688534 -0.267886 -0.0680812
-0.656227 -0.207515 -0.204721
0.707693 -0.387565 0.0206757
-0.532356 -0.139643 0.259262
0.369592 -0.358116 0.280064
-0.584331 -0.551028 0.0633758
0.195055 0.877312 -0.0428479
-0.587379 -0.519636 -0.139462
0.630426 -0.250912 0.238171
0.668193 0.272457 0.0935498
0.623855 0.640133 -0.0545331
0.72043 -0.318687 0.0604395
0.685121 -0.198584 0.0666173
0.351174 -0.18165 -0.242446
0.586324 -0.386785 -0.267149
-0.404967 -0.491836 0.209253
0.078287 0.97178 -0.0897524
-0.403019 -0.156726 -0.281133
0.613858 -0.442806 -0.180622
-0.720023 -0.237929 -0.0820721
-0.620978 -0.262021 0.243474
0.721647 -0.287547 -0.0637915
-0.0461291 0.991873 0.0148002
-0.116553 0.896889 0.0169334
-0.635746 0.346617 0.0439493
0.309426 0.868875 -0.0873324
-0.712375 0.329941 -0.0634854
-0.426939 -0.355911 -0.0476026
0.478673 -0.51428 0.187278
0.702366 -0.212778 0.118889
-0.597761 -0.107412 0.199765
-0.71969 -0.278912 -0.0966355
0.340103 -0.072902 -0.142134
-0.576916 -0.319472 -0.226192
0.360785 -0.136957 0.121836
-0.46094 -0.0217921 0.148948
-0.587961 -0.278044 0.192315
-0.329667 -0.292648 -0.236011
0.582285 -0.157349 -0.106585
-0.272876 0.938171 -0.0825303
-0.266238 0.941175 -0.000556609
-0.667039 0.353441 -0.0975577
-0.688712 -0.181283 0.12747
-0.334306 -0.0604418 0.0345348
0.634844 -0.185521 0.219081
0.53595 0.659083 0.0945235
-0.599221 0.491405 0.0210448
0.666769 -0.0767306 -0.0146075
0.696548 -0.133903 0.0424176
-0.209873 0.963458 -0.0712849
0.342151 -0.525989 0.0103575
0.178207 0.974756 0.0132628
-0.386006 -0.339046 0.280564
0.424114 -0.188444 0.0278543
-0.470637 -0.0382252 -0.18946
-0.587374 -0.0491867 0.165697
-0.510472 0.705353 -0.0959186
0.584058 -0.208829 -0.1733
-0.397363 0.76893 0.0844057
-0.56905 0.711079 -0.0965318
-0.584377 -0.50929 0.0639367
0.667504 0.0183718 -0.0835824
-0.580768 -0.50274 -0.0740323
-0.447627 -0.256946 -0.29064
-0.617204 0.654815 -0.0578065
-0.644501 0.531469 0.0821611
-0.670708 0.115206 -0.048922
-0.342822 -0.415833 0.0954273
0.668916 0.126605 0.0245895
0.447123 -0.0509073 0.183389
0.42273 -0.293048 0.07779
-0.334087 -0.460803 0.0810179
-0.603432 -0.382831 -0.247819
-0.504927 0.659154 0.0472983
-0.606164 -0.0136371 -0.052209
-0.587594 -0.45334 0.184735
-0.588676 -0.216689 0.218898
