ply
format ascii 1.0
comment Created by Open3D
element vertex 1653
property double x
property double y
property double z
end_header
-0.595332 -0.51586 0.00971194
0.433079 0.840593 -0.120174
0.623765 -0.346082 0.286827
-0.628277 0.600144 0.121676
0.322616 -0.400253 -0.329013
0.672109 0.199624 -0.125832
-0.179863 0.961376 -0.125832
-0.689243 0.0636514 -0.123597
0.276079 -0.680239 0.0919607
-0.370364 -0.13798 0.239403
-0.357056 -0.235506 -0.303983
0.374793 -0.104339 -0.00405024
0.647745 0.551985 0.115227
0.134228 0.96131 0.123879
-0.29712 -0.553373 0.271477
-0.286695 -0.61249 -0.216157
0.594005 -0.514862 -0.0617831
0.649651 -0.199275 -0.206033
-0.389876 0.848201 0.123879
0.670289 -0.0424951 0.124986
-0.625172 -0.346625 0.285655
-0.690034 0.402093 -0.125832
-0.61025 -0.429855 -0.300771
0.317184 -0.431051 0.303467
-0.592639 -0.206242 -0.00678519
-0.529275 0.739431 -0.125832
-0.694459 0.232296 0.122909
0.573495 -0.631182 0.207287
-0.384823 -0.708661 0.0480022
0.328014 -0.643252 -0.187014
0.421338 -0.166945 0.256995
-0.385569 -0.0550291 -0.104847
0.676068 0.281252 0.123879
0.585037 0.624326 -0.125832
0.49677 0.780706 0.123879
0.192991 0.964288 -0.125832
-0.121336 0.96243 0.123879
0.634738 -0.283849 0.036
0.582966 -0.429147 -0.300573
0.391404 -0.168623 -0.260801
-0.541578 -0.583878 0.244843
-0.682462 -0.0217227 0.12092
-0.54965 -0.636461 -0.193561
-0.415057 -0.358918 0.168235
0.457851 -0.432197 0.110195
-0.423964 -0.410829 -0.165278
0.684154 0.426438 -0.0827242
-0.620506 -0.21674 -0.22851
0.474691 -0.336692 -0.122612
0.469092 -0.688017 -0.0156377
0.657371 -0.0170143 -0.0862522
-0.366178 0.868913 -0.107316
0.324663 0.892819 0.0732573
-0.362849 -0.203467 0.0365307
-0.306032 -0.531353 -0.0173366
0.00286867 0.992557 -0.0356943
-0.561914 -0.175084 0.193207
0.531522 -0.614421 -0.216054
-0.592785 0.560512 -0.0646278
0.303701 -0.528718 -0.032813
-0.663757 0.41984 0.0663711
0.372287 -0.606419 0.240512
-0.486273 -0.061048 0.0610812
-0.314409 -0.455318 -0.317789
-0.620765 -0.371626 -0.106522
-0.457758 -0.44104 0.32875
-0.560893 -0.711176 -0.0247992
-0.623525 -0.355971 0.0948949
0.467265 -0.245931 0.0924375
0.492396 -0.475189 0.302953
-0.643166 0.241223 -0.0498784
0.637895 0.119395 0.0521392
-0.537125 0.74038 0.0581368
0.501648 -0.0883761 -0.136511
0.601912 -0.186334 0.204363
-0.343435 -0.290707 0.314837
-0.474306 -0.347404 0.00737554
-0.268862 0.938896 0.0412391
0.491545 -0.0809928 0.124577
0.324277 -0.418281 -0.159354
-0.435353 -0.528332 0.0911737
0.336572 -0.321098 0.16495
0.478356 -0.299914 -0.318702
-0.379829 -0.255857 -0.121213
-0.413055 -0.694776 -0.115825
-0.668708 -0.0997266 -0.123615
0.464995 -0.309244 0.323526
0.305572 -0.496912 0.140521
-0.46135 -0.371902 -0.330793
-0.461692 -0.530415 -0.278922
0.494371 0.717473 -0.0250422
-0.477887 -0.142811 -0.224047
0.35441 -0.219933 -0.113377
0.436496 -0.510369 -0.307128
0.601349 -0.473212 0.165557
0.592068 -0.133125 0.00857424
-0.402192 -0.651868 0.195121
0.446038 -0.499188 -0.106786
0.627144 -0.326919 -0.114614
-0.690561 0.106244 0.0364372
-0.536603 -0.682735 0.122417
-0.28635 -0.614452 0.110056
0.579333 -0.598073 0.0636148
0.272365 -0.685236 -0.0551765
-0.31146 -0.472041 0.146802
-0.488016 -0.269649 0.306118
-0.445164 -0.512678 -0.0633915
0.687106 0.412517 0.0620979
-0.277215 -0.666254 -0.0780199
-0.600463 -0.486762 0.156764
0.414672 -0.677083 0.123114
-0.630836 -0.0162487 -0.0110401
0.643088 0.287317 -0.0183411
0.300698 -0.537849 -0.281506
-0.534735 -0.0939487 -0.0780413
0.42746 -0.551807 0.0266818
0.582686 0.677144 0.0743086
-0.59759 -0.503054 -0.144826
0.21883 0.956779 0.00992239
-0.432349 0.784129 -0.0201529
0.61085 -0.419328 0.038133
0.602627 0.532937 -0.0248135
0.318648 0.914595 -0.10749
-0.310106 -0.479721 -0.141574
0.367524 -0.145562 0.136564
-0.319226 -0.428003 0.310871
-0.487689 -0.257086 0.103462
0.466034 -0.224345 -0.0436795
0.60648 -0.444114 -0.172107
0.341765 -0.291647 -0.257884
-0.659541 -0.151711 0.0899069
0.430017 0.842949 0.0168269
-0.579225 -0.468728 0.293514
0.569335 -0.65477 -0.099077
-0.491546 -0.249632 -0.295741
0.343231 -0.283331 0.287982
-0.351005 -0.247773 0.157631
-0.132095 0.979886 -0.0078568
0.00530573 0.963838 0.123879
-0.334986 -0.338623 -0.235297
0.466299 -0.384287 -0.00655542
-0.377334 -0.0984558 0.111316
0.613382 -0.309088 -0.282431
0.439831 -0.667545 -0.136728
0.511262 -0.185004 -0.232211
0.48891 -0.0558445 0.000693723
-0.568117 -0.345311 -0.215437
0.378746 -0.081917 -0.14894
0.64723 -0.202816 -0.0826683
-0.492698 -0.2431 -0.0748549
0.629916 -0.3112 0.15355
-0.522554 -0.603721 -0.0632888
-0.415459 -0.545128 0.29082
-0.641313 -0.255085 -0.107849
0.68896 0.103116 -0.0609209
-0.257269 0.895818 -0.0661854
0.0792368 0.94416 -0.114236
-0.675064 0.47544 -0.0376535
-0.697014 0.314895 0.031437
-0.636546 -0.282121 0.182529
-0.369329 -0.143852 -0.185929
-0.58666 -0.55512 -0.265494
0.592881 -0.521236 0.272679
0.644344 0.327944 -0.124919
-0.0669864 0.945517 -0.122751
0.65375 -0.176025 0.103367
0.0923513 0.942866 0.0197967
0.298685 -0.535966 -0.164175
-0.571568 0.660647 -0.0145427
-0.426301 -0.619655 -0.219329
-0.366686 0.888134 0.0176311
0.652013 0.532986 -0.125832
-0.583444 -0.583281 0.0986252
0.538824 0.735503 -0.125832
0.629388 -0.0159325 0.0216766
0.53362 -0.684523 0.117164
-0.384256 -0.0591996 0.00655709
-0.467269 -0.101721 0.174303
-0.565042 -0.395806 0.206796
-0.614223 -0.408726 -0.00176366
0.286748 -0.603667 0.173216
0.36747 -0.207395 0.0469998
-0.596651 0.654337 -0.125832
0.476848 -0.410467 -0.311357
0.579216 -0.537151 -0.273985
-0.47417 -0.175296 0.256436
0.387354 0.819924 0.121332
0.56205 -0.379335 0.201365
-0.583448 -0.167695 -0.138996
0.299624 -0.530646 0.262951
0.442211 -0.340381 0.16356
0.53437 -0.238729 0.269019
0.427064 -0.606801 -0.238688
-0.355695 -0.556715 -0.275473
0.692279 0.2104 0.0351724
-0.4607 -0.424566 0.0780806
0.474636 -0.581112 0.242722
-0.645967 0.559523 0.0263097
-0.369142 -0.144911 -0.0517705
-0.430663 0.785516 -0.124775
-0.645908 0.329894 0.121425
-0.58877 -0.232497 0.100212
0.638246 -0.114722 -0.146943
0.554812 0.633187 -0.0240032
0.509949 -0.136733 0.209933
-0.691435 0.190714 -0.125832
-0.524873 -0.365794 0.300501
0.236067 0.907646 0.123879
0.350476 -0.705411 0.0252839
-0.475728 -0.322508 -0.153855
-0.637888 0.0705681 0.123277
0.39854 -0.0496649 0.078777
-0.469867 0.779738 0.123879
-0.664619 -0.122915 -0.00773175
0.381172 -0.318411 -0.158509
0.565255 -0.354121 -0.193342
-0.274133 -0.68374 0.0374864
-0.68392 0.301258 -0.125832
0.342037 0.850682 -0.032147
-0.63943 0.120436 -0.0493904
-0.642711 0.368559 -0.0339517
-0.218365 0.911921 0.12377
-0.328199 -0.377107 0.215146
-0.362548 -0.355382 -0.33084
0.292756 -0.569594 0.0729604
-0.565216 -0.121151 0.101196
0.407862 -0.531082 0.297328
0.421719 -0.398213 0.332527
0.368138 -0.423652 0.161817
-0.517456 -0.632633 0.0398472
0.588308 -0.547171 -0.171969
0.635725 0.0492121 0.122869
-0.64013 0.498237 -0.125832
0.526307 -0.573901 0.144
0.559631 -0.709804 0.013064
-0.536881 0.668498 0.123879
-0.615145 0.501125 0.0978769
-0.555517 -0.463339 -0.222767
-0.641846 0.198542 0.0370584
0.355252 -0.21516 0.202433
-0.634632 -0.292979 -0.00380928
-0.631526 -0.310592 -0.278474
0.361929 -0.69614 -0.0874184
-0.445927 -0.702227 -0.0264168
-0.0581491 0.974269 0.0534518
-0.631526 -0.0123303 -0.119215
0.610274 -0.422592 -0.0773387
-0.418365 -0.355257 0.332067
0.287144 -0.601424 -0.0959496
-0.589547 -0.250412 0.257644
-0.294162 -0.570147 -0.102101
-0.466819 -0.0849152 -0.142202
0.459055 -0.425365 -0.163233
-0.318836 -0.43021 -0.223062
0.639906 0.184448 0.119685
-0.397874 -0.215831 0.292595
-0.313229 0.901705 0.123879
0.665681 -0.108365 -0.0429922
0.571463 -0.132787 0.104524
0.586111 -0.429652 0.302316
-0.653796 -0.184289 0.182942
0.415776 -0.0501194 -0.0670303
-0.454579 -0.217939 0.0263412
-0.313381 -0.622445 0.212095
-0.567963 -0.67108 -0.107825
-0.406031 -0.463191 -0.320578
-0.462369 -0.415099 -0.0818275
0.584895 -0.241638 -0.15656
0.386593 -0.514306 0.0998056
-0.353845 -0.231668 -0.207164
0.5208 -0.605141 -0.00641206
0.395348 -0.336868 -0.32907
-0.562422 -0.0897934 0.0154726
0.572349 -0.126313 -0.0852386
0.671392 0.482215 0.00648388
0.58478 0.576314 0.0522785
0.235118 0.90439 -0.0612778
-0.51593 0.736778 -0.0289332
-0.391447 -0.547257 0.00438234
0.28525 -0.612164 -0.00527334
-0.346477 -0.678647 0.130734
0.586195 -0.234269 0.106345
0.475594 0.803829 -0.0511239
0.693111 0.364643 -0.019307
0.148994 0.976046 -0.0494362
0.456353 0.759072 0.0437371
0.644437 0.334749 0.0572614
0.639847 -0.254879 0.246163
-0.640705 0.161663 0.121487
0.636133 0.464678 0.123879
-0.447834 -0.683946 0.104868
0.639843 0.18239 -0.0454008
-0.42583 -0.4602 0.150879
0.687328 0.0503437 0.0275735
-0.566154 0.614684 0.0602414
-0.311351 -0.47266 0.234689
0.593349 -0.518579 0.0257383
0.312249 -0.45904 -0.245771
-0.344735 -0.657444 -0.169561
-0.541058 -0.498775 0.219004
0.521389 -0.371624 0.301926
0.527969 -0.578566 -0.101888
-0.350084 -0.521505 0.0769256
-0.184234 0.922296 0.0331613
-0.531633 -0.552225 -0.185768
0.511874 -0.482327 -0.275416
0.425551 -0.0982107 0.179733
0.645226 0.066544 -0.125832
0.6683 -0.0935105 0.0420148
-0.404173 -0.175112 -0.264392
-0.346297 -0.70259 -0.0417793
0.358759 -0.487538 -0.122307
-0.512718 -0.437433 -0.292277
0.402568 -0.241842 -0.303243
-0.482509 -0.652518 -0.141607
0.54052 -0.358852 -0.278536
0.480307 -0.304842 0.019756
0.329254 -0.362604 0.238502
0.451803 -0.466497 0.00784526
0.649976 -0.197435 0.0220212
-0.481379 -0.628218 0.180256
-0.43126 0.82096 0.0552626
0.616125 -0.389407 0.126767
-0.344009 -0.287445 0.231102
0.418021 -0.242781 0.304202
-0.655454 -0.174891 -0.0887747
-0.580953 -0.272514 -0.176701
-0.687733 0.0148209 0.0413021
0.359914 -0.188721 -0.0363592
0.544562 -0.268408 -0.259977
0.352944 -0.228251 -0.205849
-0.607451 -0.447132 -0.0747034
-0.475839 -0.338708 0.104123
0.433114 -0.12127 -0.207697
-0.472778 -0.0555364 -0.0398669
0.461483 0.763622 -0.125832
0.399531 -0.540161 -0.0527913
0.543264 -0.477737 0.223473
0.445338 -0.636313 0.189478
-0.624881 -0.0500218 0.0698625
-0.399586 -0.481979 -0.132703
0.295352 0.925961 -0.0102471
-0.40789 -0.216905 -0.0538771
0.3568 -0.473266 -0.315699
-0.37821 -0.326955 -0.161325
-0.58275 -0.587215 -0.132601
0.558705 -0.145288 -0.163322
0.341016 -0.66557 0.155986
0.0142853 0.991981 -0.125574
-0.529334 -0.565263 0.156663
-0.30459 -0.511 -0.231822
0.326171 -0.380087 -0.234232
-0.692747 0.176919 -0.0265277
0.574479 -0.30071 0.215047
0.385454 -0.248267 0.114241
-0.417474 -0.297525 -0.320975
-0.689082 0.0584642 -0.0377359
0.330146 -0.357538 0.33239
-0.536938 -0.324235 -0.285709
0.533868 0.742409 0.0492975
0.473467 -0.343636 0.0906227
0.632174 -0.29839 -0.206024
-0.215981 0.958383 -0.0296154
-0.587813 -0.558503 -0.0591488
-0.538706 -0.208658 -0.247427
-0.605205 -0.459865 0.0645126
0.689071 0.106695 0.113641
-0.3653 -0.52731 -0.0691522
0.640333 0.377708 0.12312
-0.617676 -0.0908853 -0.0644448
-0.636256 -0.0957544 0.139962
-0.299792 -0.538214 0.187554
0.587884 -0.549574 0.186243
-0.574492 -0.634048 0.194284
-0.65624 -0.170435 -0.167762
0.614752 0.622688 0.121525
0.315902 -0.438321 0.223821
0.355015 0.841988 -0.125638
0.434433 -0.253853 -0.108887
0.179049 0.923415 0.0724785
0.523414 0.687625 0.123879
-0.460467 -0.425889 -0.00466129
-0.365696 -0.164458 0.150907
0.552156 -0.427308 -0.225089
-0.476793 -0.333297 -0.0686499
0.626033 -0.33322 -0.0376261
-0.0576957 0.946434 -0.0232711
-0.413014 0.857185 -0.0472482
0.693846 0.261084 -0.0847434
-0.527128 0.677352 -0.0765284
-0.633967 0.587079 -0.124372
-0.619186 0.48768 0.0211245
-0.380785 -0.481374 0.316017
-0.64265 0.125856 -0.125832
0.480197 -0.676844 0.059425
0.0218496 0.991599 0.038437
-0.610071 -0.432269 -0.179344
0.372095 -0.563486 -0.273162
-0.333175 0.908239 -0.0477077
-0.406784 -0.233843 0.0906796
-0.678288 -0.0453957 -0.0682117
-0.290916 -0.588556 0.0299943
0.627555 0.461285 -0.125832
-0.5789 -0.60905 0.00234588
0.618865 -0.373871 -0.243049
-0.647835 -0.218098 0.0434819
0.370172 -0.130545 -0.091714
0.634392 0.417739 -0.00404008
0.591721 -0.202927 -0.0323015
0.400738 -0.414223 -0.329665
-0.553549 -0.707274 0.0495629
-0.294789 0.926969 -0.122399
-0.376125 -0.594666 0.251633
0.628208 -0.105698 0.144157
0.461831 -0.409626 -0.0906485
0.501062 -0.553357 -0.244887
-0.676695 0.468701 0.12187
0.297813 -0.672675 -0.122981
-0.154087 0.931049 -0.0580924
0.642279 0.261178 0.0519115
0.278766 -0.693173 0.0176545
-0.468056 -0.59167 0.242149
0.527604 -0.0872923 0.0541005
0.351872 -0.539396 0.020975
0.413623 -0.0428092 0.00555868
0.615549 0.49478 0.0517376
-0.566398 -0.488516 -0.290254
0.541907 -0.485742 -0.183007
0.609142 -0.429012 0.225905
-0.371516 -0.131446 0.040259
0.635378 0.0379938 -0.0442296
-0.623886 -0.35392 0.212339
-0.697152 0.319381 -0.0408277
-0.448262 -0.49511 0.0281876
0.364775 -0.161154 -0.157036
-0.351781 -0.422698 -0.159418
0.513843 -0.694443 -0.0760261
0.299677 -0.594657 -0.237747
0.491021 -0.225878 -0.287521
-0.500842 -0.514191 0.276284
0.582678 -0.579099 -0.0314506
0.356362 -0.208865 0.290821
0.361808 0.837437 0.0477297
0.0560507 0.946448 -0.0443729
0.562419 0.705991 -0.0413787
-0.6123 -0.419635 0.123931
-0.331379 -0.359081 0.328369
0.644942 -0.225982 0.164745
0.588385 -0.546731 0.111291
0.627855 0.597659 -0.0376006
-0.538774 -0.159343 -0.192742
-0.393749 -0.09719 0.187091
-0.47075 0.746137 -0.0824873
0.43404 -0.213294 0.0179503
-0.629396 -0.322669 -0.167688
-0.635674 -0.287072 0.101749
0.522333 -0.0868775 -0.0555618
0.405466 0.805017 -0.052041
0.638877 -0.260377 -0.0298482
-0.29442 0.878351 0.00207441
-0.505747 -0.666748 -0.0316722
0.481683 -0.297039 -0.0658326
-0.671401 0.256595 0.0619037
0.522202 -0.665974 -0.149037
-0.69051 0.402464 0.00350899
0.388956 -0.317073 0.327898
-0.521302 -0.230206 0.259694
0.153082 0.974993 0.0339564
-0.617149 -0.392126 -0.242937
-0.630795 0.443752 -0.0805973
-0.59322 -0.202951 -0.0770368
0.252362 0.922798 -0.125832
-0.637661 0.0632468 0.0245976
0.660819 0.51524 -0.0598513
-0.69299 0.379607 0.114003
0.591875 0.55907 -0.0872516
-0.100209 0.984747 -0.0774485
-0.611316 -0.12695 0.0480866
0.399144 -0.392464 -0.167177
0.451952 0.826076 0.0992525
0.246409 0.899703 0.0353676
0.535246 -0.54984 0.245786
0.359421 -0.485724 0.313048
0.605316 -0.450713 0.0989831
0.690149 0.141561 -0.00463892
-0.373242 -0.121664 -0.115712
0.0617453 0.945886 0.0902109
0.611349 -0.248097 -0.252456
-0.51309 -0.084839 0.125378
-0.228618 0.910815 -0.125832
0.490916 -0.180578 0.258084
-0.590407 -0.543792 0.207486
-0.177019 0.969212 0.0859113
0.530633 0.669824 -0.111489
0.544589 -0.656633 0.0538249
0.638623 0.14296 -0.110001
-0.437605 -0.0681161 0.116625
-0.416169 -0.294645 0.147046
0.373414 -0.112162 0.0737555
0.694304 0.353642 -0.0874448
0.370872 -0.126581 0.207131
0.447655 -0.490027 0.0771523
-0.67603 -0.0581961 0.0160786
0.52795 0.673856 0.0353818
0.648181 0.550986 0.0345339
-0.574421 -0.309566 0.202271
0.622186 -0.0567829 -0.0451365
0.351044 -0.69252 0.0954073
-0.692772 0.177763 0.0753934
0.682517 -0.0128834 -0.0243021
-0.643975 0.355326 -0.113057
-0.325814 -0.390639 -0.287521
0.599462 -0.483914 -0.239283
-0.606087 -0.454863 0.215026
-0.279704 -0.652137 -0.15621
0.574361 -0.626267 0.140878
-0.609551 0.634627 -0.0636619
0.436054 -0.688969 -0.0739704
-0.45712 0.759809 0.0540384
0.505922 -0.126745 -0.198742
0.695051 0.300019 0.0324517
-0.464158 -0.689864 0.0412553
-0.296551 -0.556596 -0.182619
-0.690956 0.119061 0.119506
-0.583409 0.678255 0.0609348
-0.485094 -0.59023 -0.222713
0.372459 -0.673631 -0.149383
0.692745 0.225477 -0.0296957
-0.647767 -0.218481 0.12732
-0.644516 0.284871 -0.00100113
-0.583413 -0.285199 -0.242186
0.604246 -0.456775 -0.0150571
0.575187 -0.621586 -0.168024
-0.399162 -0.0832804 -0.162102
-0.586708 0.575283 0.00394211
-0.524609 -0.433463 0.289027
-0.450915 -0.266238 -0.119092
-0.335722 -0.334445 0.166605
-0.579445 -0.372742 -0.299225
0.595504 -0.181471 -0.115495
0.59051 -0.211573 0.0437148
-0.495342 0.718124 0.119593
0.410804 -0.699013 0.047867
-0.367974 0.834314 0.0568354
0.623715 -0.346367 0.207499
-0.522446 -0.604332 0.103106
0.372101 0.883846 -0.0793965
0.417808 -0.46801 0.146195
-0.590684 -0.40374 0.265566
0.63894 0.3923 -0.125724
0.390843 -0.712082 -0.0319447
0.690777 0.161865 0.0776698
-0.479885 -0.191978 -0.267196
0.342751 -0.286064 0.223897
-0.594203 -0.135148 -0.0244495
-0.637752 0.0661617 -0.0855659
0.338914 -0.307823 -0.319779
0.571634 -0.641582 -0.0228634
-0.53624 -0.302872 0.28049
-0.464218 -0.404615 0.138611
0.625507 -0.336205 0.0713052
0.62205 -0.0575515 -0.123705
-0.497835 0.784254 0.00965602
-0.485375 -0.284627 0.00485816
-0.585775 -0.245173 0.171267
-0.604961 -0.162994 0.128356
0.637321 0.100831 -0.0235995
-0.341664 -0.30075 -0.305485
-0.643429 0.361043 0.0292805
-0.299703 -0.53872 0.111814
-0.0207383 0.94892 -0.0755635
0.176146 0.924298 -0.0793569
-0.355046 -0.224855 0.231639
0.238801 0.94942 0.0760929
0.617611 -0.380982 -0.146586
-0.421563 -0.578607 -0.2689
-0.425045 -0.269713 0.314122
-0.653534 0.542145 -0.0651016
0.640338 -0.252089 -0.122055
-0.646567 0.250057 -0.125832
0.579058 -0.301371 0.282636
0.519449 -0.612806 0.0944923
-0.506467 -0.1391 0.215715
0.494161 -0.226274 0.0327526
-0.418291 -0.665079 -0.176111
0.582866 -0.253143 0.174292
0.374457 0.882386 0.110276
-0.454802 0.824875 -0.081308
0.674332 0.472751 0.0745729
0.462945 -0.0566843 0.0578765
-0.667668 0.498541 0.0635467
0.527965 -0.564503 -0.17225
-0.522466 -0.604216 -0.143517
0.599853 -0.481694 -0.122514
0.306619 0.87101 0.0173403
0.656996 -0.157619 0.163634
-0.640008 0.139113 0.0562284
-0.349533 -0.407759 0.165074
0.308048 -0.603863 0.231874
-0.280977 -0.653465 0.158409
-0.308768 0.870664 0.0700587
-0.694388 0.230007 0.0105883
0.686059 0.00929917 0.0944455
0.604032 0.641782 0.0279029
-0.647126 -0.222121 -0.0318776
-0.402788 -0.523898 -0.29861
0.381638 -0.0710483 0.14566
-0.596214 -0.185968 0.0601478
-0.330348 -0.364928 -0.169801
0.642551 0.354496 -0.0531339
0.452533 -0.462359 -0.0536606
-0.0540935 0.947681 0.123879
0.650706 -0.193293 -0.143324
-0.380211 0.826116 -0.00286476
0.501261 -0.628229 0.158119
0.594128 0.65942 -0.065917
0.296596 -0.547816 0.196776
-0.688883 0.052001 0.0945695
0.336141 -0.323547 -0.205742
0.282109 -0.629975 0.0572614
0.407032 -0.459637 -0.14789
0.555848 -0.139125 0.163495
-0.592471 -0.532089 -0.209149
0.616713 -0.0878169 0.0741957
-0.3064 -0.500741 0.300748
0.555809 0.63131 0.109132
0.601463 -0.174299 0.144107
-0.670091 -0.0918797 0.0886493
-0.472895 -0.328995 0.327491
-0.112779 0.939282 0.0329132
0.629605 0.442154 -0.0593287
-0.633502 -0.299386 0.240566
-0.613712 0.505894 -0.0373424
0.56662 -0.209673 -0.204667
-0.517616 -0.534498 -0.24186
-0.626068 -0.34155 -0.0387363
-0.335065 -0.338172 0.262579
0.398503 -0.221609 -0.0690871
-0.406896 -0.048274 0.0686811
-0.690437 0.403134 -0.0655652
0.687071 0.110804 -0.125832
0.327037 -0.520073 0.0723504
-0.593191 -0.528001 0.0768381
-0.516956 0.691692 0.0290304
0.454897 -0.635364 -0.193632
0.687175 0.0453852 -0.0777668
-0.611713 0.630778 0.0188044
0.660412 -0.138244 -0.0962465
0.566456 -0.372837 0.26216
-0.690876 0.116442 -0.0912168
-0.589406 -0.526538 0.280668
-0.69677 0.307006 0.0909846
0.505062 0.748229 -0.0755097
0.4785 -0.287224 0.134523
-0.240436 0.902807 -0.00702107
0.643128 -0.236268 0.0714964
-0.634174 0.426517 0.123392
-0.640997 0.171107 -0.0812348
-0.572937 -0.642871 0.0964494
-0.446626 -0.134272 0.222676
0.440295 0.775179 -0.0123151
-0.418965 -0.132971 -0.224588
0.639897 0.184143 0.0238676
-0.302548 -0.52286 -0.290262
-0.636128 0.0136649 0.0710815
0.58548 -0.563207 -0.102574
0.458434 -0.415542 0.167273
-0.512538 -0.108989 -0.171479
0.476602 -0.409636 0.313138
-0.454506 -0.459694 -0.134213
-0.415094 -0.22739 -0.29513
-0.30517 -0.507718 -0.0896033
-0.0153731 0.94892 0.0180185
-0.328755 -0.687128 -0.0980654
0.449695 -0.177874 -0.259982
-0.274045 -0.691602 -0.0248125
0.288706 -0.592559 -0.179878
-0.467902 -0.383723 -0.13138
-0.621972 -0.364773 0.0366944
-0.285223 -0.620842 -0.0187915
0.348127 -0.25557 0.160383
0.354675 -0.218433 -0.263743
0.631132 0.434365 0.0640185
-0.637285 -0.277932 -0.219932
0.557269 -0.0877854 -0.00477211
0.542392 -0.194706 0.231044
-0.342755 -0.294563 -0.197349
-0.40209 -0.422662 0.330085
0.368756 -0.138578 -0.210986
-0.643449 0.0115624 -0.065066
0.344871 -0.274033 -0.14653
-0.404794 -0.682483 0.14452
0.538821 -0.441592 0.269981
-0.695273 0.25864 -0.0696941
0.642429 0.266004 -0.111985
-0.635285 0.420847 0.00125495
0.294422 0.926415 0.10975
-0.361227 -0.1898 -0.151383
-0.369222 -0.61547 -0.229064
-0.64387 0.264014 0.112443
0.695047 0.346794 0.0829221
-0.479212 -0.319579 -0.313425
-0.492853 0.788957 -0.11453
-0.405588 -0.0445417 -0.04517
-0.572946 -0.642817 -0.0442347
0.205348 0.961525 -0.0461125
-0.543114 -0.586392 -0.241314
-0.568424 -0.343571 0.255015
-0.619293 -0.0817106 0.00933982
-0.572797 0.60219 -0.0992742
0.526798 -0.597746 0.201513
-0.569525 -0.406632 -0.211419
-0.517974 -0.375277 -0.304565
-0.535385 -0.134154 0.162546
-0.293894 -0.571666 -0.256085
0.69056 0.154835 -0.0860041
-0.362072 0.890994 0.0766155
0.383619 -0.642643 -0.201176
0.514935 -0.638396 -0.0637646
0.69536 0.310002 -0.050217
0.120213 0.937501 0.0696276
0.157568 0.929946 -0.0164988
-0.444923 0.832324 0.123879
0.333685 -0.701263 -0.0378507
0.427491 -0.0692559 -0.121702
-0.589527 -0.548781 0.143897
-0.573232 -0.205937 -0.198304
-0.309317 -0.686877 0.0881287
-0.115538 0.98241 0.0702692
0.579156 -0.300815 -0.227135
0.134756 0.937458 -0.125832
0.621314 -0.359986 0.0195649
-0.4009 -0.397626 -0.330614
-0.455566 -0.224893 0.292037
0.614046 -0.401203 -0.0230342
-0.583311 -0.136632 -0.0803645
-0.622051 -0.225856 -0.172314
-0.636317 -0.226562 0.235861
0.465496 -0.521991 0.285177
-0.592708 0.658211 0.123879
0.693113 0.237365 0.0851121
-0.686214 -0.000439891 -0.109802
0.288022 0.880973 -0.0736044
-0.234119 0.951699 0.0865579
-0.22207 0.956139 -0.0883751
-0.65461 0.532331 0.123879
0.516314 -0.287049 0.292294
0.582376 -0.580813 -0.216949
-0.463691 -0.683525 -0.0766148
-0.359185 0.840202 -0.0592423
-0.357516 -0.210844 0.105639
0.511184 0.76862 -0.00862239
-0.495623 0.786342 -0.0465365
0.560323 -0.705874 -0.0464379
-0.451761 -0.0630224 -0.0926097
0.309896 -0.472394 -0.164715
-0.551206 0.72409 0.118788
-0.299639 0.875555 -0.100286
0.296778 -0.546787 -0.0881809
0.400547 0.865619 -0.0250636
0.631487 -0.163812 -0.0373302
-0.690776 0.113242 -0.0262542
0.426068 -0.482585 0.318204
0.444502 -0.369387 -0.330803
0.281226 -0.634983 0.127435
0.0550096 0.989926 0.123122
0.481364 0.733381 0.0996287
0.0838801 0.987009 -0.079487
0.391207 -0.315346 0.158422
0.441009 -0.296487 -0.143512
0.372651 -0.643462 0.199569
0.634198 -0.286912 0.104179
0.628191 -0.0227282 0.0763847
0.439312 0.776165 0.118784
-0.373773 -0.495056 0.118991
-0.63447 -0.293899 -0.0694531
-0.590722 0.565528 0.0629631
0.594133 -0.37529 -0.299178
-0.359072 -0.202023 -0.0743791
0.677479 -0.041454 0.0570082
0.419015 0.793865 0.0693328
0.540941 -0.517543 -0.232899
0.672225 -0.0712506 -0.0828523
-0.356158 -0.496263 -0.307006
-0.481294 -0.307769 0.0544126
-0.333925 -0.702957 0.0115756
-0.435442 -0.0472644 0.0219704
-0.468469 -0.318491 0.154388
0.466143 -0.38517 0.056019
-0.469377 -0.37536 0.0561959
0.468626 -0.672999 0.116445
0.109257 0.939685 -0.0577142
-0.621723 -0.366185 0.148388
-0.5661 0.70289 -0.109593
-0.631968 0.591669 -0.0390555
-0.60373 -0.468231 -0.247294
-0.325688 -0.391352 0.268357
-0.503228 -0.489574 -0.280665
0.357303 -0.603219 -0.239321
-0.602408 0.537124 -0.123694
0.356898 -0.205827 0.140734
-0.445319 -0.504878 0.311433
-0.519303 -0.648781 -0.0931323
-0.612088 -0.122573 -0.123997
0.0946104 0.985372 0.0531407
-0.163488 0.928603 0.123691
0.549933 -0.493416 0.290006
0.511329 -0.658852 0.0113244
-0.523386 -0.0690576 -0.0268723
0.641422 0.233462 -0.0627754
0.584543 0.576889 0.106241
-0.267231 0.939497 -0.0361915
0.198393 0.946071 0.123879
0.668342 -0.0932705 0.107284
0.342927 -0.376709 0.169219
-0.509972 -0.701702 0.0157126
-0.680537 0.450581 -0.0996799
0.315799 -0.438913 0.170113
-0.654493 -0.180343 0.00101704
0.472368 -0.349872 -0.0658794
0.567655 -0.479917 -0.292651
0.583733 -0.571848 0.257598
-0.284984 -0.622193 -0.110685
-0.68401 -0.0129424 -0.0160962
0.636249 0.0661963 0.0573448
0.564842 0.614323 -0.0773408
0.614175 -0.400469 0.180972
0.532405 -0.539318 0.184285
0.439087 -0.0710575 0.122819
0.470704 -0.251272 0.303801
-0.57043 -0.657082 0.0430143
-0.461964 -0.435406 -0.308491
-0.477651 -0.386594 0.313845
-0.40265 -0.710168 -0.0564372
0.304965 -0.500352 -0.212962
0.0488941 0.990234 -0.00738505
0.339378 0.904126 -0.0426659
0.346331 -0.544734 0.28399
0.31994 0.877399 0.123879
-0.644696 0.290698 -0.069144
0.308768 -0.478787 0.269444
-0.118485 0.957828 -0.125832
-0.680044 -0.035435 0.063748
-0.495404 -0.227751 -0.00590269
0.308592 -0.497218 -0.102178
0.599117 -0.160982 0.0559864
-0.567703 0.611771 -0.0410758
0.641546 0.237449 0.00480123
0.677035 0.431372 0.123879
0.330245 -0.356981 -0.299844
0.60751 0.52107 0.096729
-0.261916 0.893889 0.0767375
-0.639512 0.12307 0.00325278
0.687829 0.0665338 -0.0230139
0.281543 -0.63319 -0.0542848
0.434525 -0.557618 -0.283955
-0.674813 0.476226 0.0163907
0.473064 -0.0574 -0.0494951
-0.641339 0.182155 -0.0164541
0.633448 -0.291169 0.208624
0.442558 -0.518931 -0.0312757
0.642302 0.240959 0.123879
-0.361505 -0.188226 -0.0230607
0.589058 -0.244658 0.23753
-0.359207 -0.201259 -0.25736
0.673743 0.0224961 -0.125832
0.648305 -0.0684313 0.000550367
0.549342 0.724527 0.0971835
-0.293252 -0.575305 -0.0433755
0.350156 -0.245696 -0.308194
-0.450593 -0.481886 0.109861
-0.298701 -0.544409 0.0569574
-0.4579 0.82195 0.00540719
-0.581287 -0.595516 -0.200316
-0.636276 0.0184394 0.123135
0.487723 -0.262789 -0.0160047
-0.1041 0.941013 -0.0473366
0.560742 -0.703502 0.0697822
-0.556791 0.71614 -0.00411938
0.613147 -0.108036 -0.0464216
-0.618258 0.619119 0.0742465
-0.693509 0.201583 -0.072364
-0.347396 -0.268238 -0.26469
0.638137 0.12722 0.103583
-0.596487 -0.509313 -0.0445732
-0.43946 -0.545024 0.0399052
-0.693293 0.376816 0.0486265
-0.351168 -0.64909 0.185691
0.634856 0.581583 -0.11928
0.692612 0.309054 -0.125832
0.686488 0.415432 -0.0113767
0.362403 -0.426674 0.32841
0.46922 -0.461198 -0.304162
0.514166 -0.10436 0.164877
-0.663952 -0.126695 0.0447864
-0.075606 0.988499 0.000997719
0.689571 0.122886 0.0436375
-0.584597 -0.576738 0.0423046
0.307261 -0.487327 -0.290059
0.294097 -0.56199 0.124015
0.425046 0.788903 -0.0994369
-0.571138 -0.621211 -0.0950742
-0.645352 0.311906 0.0448067
0.614904 -0.396333 0.275496
-0.487709 -0.652084 0.135027
0.102682 0.984141 -0.0284177
0.270476 0.937747 -0.0781094
0.280675 -0.647716 -0.167587
0.487754 0.792351 0.0670767
-0.531161 -0.554906 -0.132102
-0.515076 -0.672757 0.0768798
-0.664124 -0.125718 -0.07699
0.628575 0.596006 0.0196726
0.36251 -0.173998 0.232135
0.6783 0.453998 -0.125832
-0.62839 -0.328377 -0.218654
-0.604554 -0.463559 0.013487
-0.551422 -0.439997 0.228683
0.442046 -0.129066 0.217004
0.415199 0.854348 0.0777339
-0.605988 0.5542 0.123879
0.690947 0.183413 0.123879
-0.629987 -0.319319 0.0583564
0.497144 -0.621679 -0.168622
0.370447 0.884871 0.0312499
0.692751 0.367957 0.0315285
-0.629547 -0.321819 -0.112613
-0.696674 0.345653 -0.0844659
0.585938 -0.235718 -0.105978
-0.423622 -0.173569 0.262168
-0.350955 -0.248055 0.288248
0.591562 -0.506202 0.212423
0.640251 0.378571 0.031924
0.530387 -0.435075 -0.27719
0.208299 0.914523 -0.0161959
0.573813 -0.304487 -0.176805
0.338146 -0.522579 -0.0695538
0.360568 -0.185008 0.0946153
0.557862 0.62745 0.0431261
0.481567 -0.2977 0.0699082
-0.0489764 0.990306 -0.0680013
-0.274159 0.936944 0.113878
-0.0198588 0.991775 0.081638
-0.542766 -0.0923006 0.066244
-0.408086 0.804098 -0.0597822
0.665851 0.334072 0.123879
-0.545399 -0.660569 -0.000975714
0.596644 -0.499889 -0.187431
-0.515808 0.693096 0.0808938
0.618344 0.485481 -0.0186238
-0.541861 -0.116175 -0.122665
-0.613664 -0.411892 0.189962
0.578371 0.588878 -0.021192
0.366269 -0.152679 0.00657844
-0.319484 -0.426534 0.214013
-0.346572 -0.551302 0.279647
-0.552456 -0.620547 0.151352
0.612298 0.505598 -0.0678254
0.643568 0.302842 -0.065976
-0.534861 0.665729 -0.124623
0.648689 -0.202431 0.212092
0.468365 -0.372571 0.135578
0.66029 -0.138934 0.0613852
0.378554 0.826219 -0.00368423
-0.651426 0.546988 0.0762749
0.4962 -0.364881 -0.305572
0.326131 -0.380312 0.284987
0.349146 -0.473542 0.13429
-0.438219 -0.552068 -0.0121097
0.483677 -0.261042 -0.10707
-0.335219 -0.535655 0.0243271
-0.384995 0.822912 -0.106678
-0.453584 -0.464926 -0.0525402
-0.526258 -0.18592 0.226056
0.455225 -0.255558 -0.304919
0.297366 0.924978 0.0471838
-0.398642 -0.41445 0.165594
0.59705 -0.497591 0.0852341
-0.406659 0.862073 0.079383
0.544497 -0.654389 0.174589
0.401036 -0.367221 0.169128
0.621317 0.610994 0.0739293
0.615954 -0.251905 -0.201461
-0.426356 -0.619343 0.223413
-0.46611 -0.64125 -0.186802
-0.158193 0.930212 -0.00802253
0.543605 -0.117411 -0.124368
-0.561469 -0.409645 -0.271874
-0.434003 0.84104 -0.122997
-0.62603 -0.203285 -0.116338
-0.617802 -0.388428 -0.06026
0.431233 -0.583163 0.26594
0.582225 0.6778 0.123565
0.635199 -0.281239 -0.0826764
0.305142 -0.499343 0.198381
0.293691 -0.564288 0.00255328
0.561971 0.706628 0.02158
-0.419487 -0.294188 -0.144638
0.444519 -0.341889 -0.16211
-0.360879 -0.191773 0.267525
0.0441674 0.94762 0.0279527
-0.694861 0.245319 -0.118402
-0.317273 -0.439077 -0.271602
-0.545691 -0.491367 -0.183764
-0.597625 -0.502855 0.238612
0.603336 -0.163681 -0.171377
0.616834 -0.385392 0.0780063
0.632117 -0.298717 0.277846
0.439548 -0.0939141 -0.167733
-0.351457 -0.288381 -0.147892
0.45635 -0.440718 0.0621599
-0.378822 -0.090012 -0.0714896
0.253405 0.944037 -0.0272414
0.689075 0.401827 -0.124485
0.310778 0.868782 -0.121977
-0.292701 -0.578433 0.214277
-0.598578 -0.49745 -0.0964986
-0.540712 -0.687151 -0.0619651
0.63733 0.101138 -0.0852121
0.638254 -0.125433 -0.0043339
-0.475378 0.805452 0.0682978
-0.00259411 0.94892 0.0668561
0.625519 -0.336136 -0.1633
-0.621747 -0.366053 -0.188849
0.521622 -0.60047 0.04184
-0.470058 -0.371498 -0.039572
-0.320116 0.914612 0.0532057
-0.623236 -0.059347 -0.111195
-0.643594 0.432252 -0.125832
-0.387386 -0.261356 0.126917
-0.521162 0.68632 -0.0188667
-0.559044 0.628054 0.106163
-0.529064 -0.66142 -0.157659
-0.644389 0.350986 0.0779921
0.466973 -0.380467 -0.141428
0.64443 0.330703 0.00272206
-0.514867 0.766101 0.113229
0.613979 -0.198158 0.0875014
0.573115 0.690768 -0.102554
-0.536922 -0.472192 0.263133
0.652489 0.541092 -0.0124035
0.441883 0.833822 -0.067924
-0.388248 -0.317924 0.328092
0.604011 0.529572 -0.125403
-0.637539 0.0592959 -0.0233423
-0.587584 -0.5598 -0.00806828
0.398811 -0.66907 0.168533
-0.0498009 0.990264 -0.125072
0.378957 -0.0807284 -0.0641917
-0.58198 -0.591578 0.220198
-0.539571 -0.533839 0.251651
0.615529 -0.392797 -0.199168
-0.372935 -0.144887 -0.244316
0.608955 -0.430079 -0.124564
-0.288375 -0.602966 0.156443
0.411004 -0.228132 0.0791756
0.604087 -0.457684 0.267985
0.413385 -0.286008 -0.318056
0.674944 0.469866 -0.0649888
-0.307176 -0.496341 -0.18646
0.133588 0.979429 -0.103115
0.450785 0.764656 -0.0674614
0.327312 -0.373615 -0.175644
0.628846 -0.0190101 0.12387
-0.21324 0.959393 0.040076
0.0334615 0.991012 -0.0820573
0.296601 -0.547785 -0.23027
-0.642688 0.225781 0.0839622
-0.658338 0.527686 -0.0201132
-0.597145 -0.207317 0.217141
0.639609 0.174846 0.0732278
0.314632 -0.693811 0.0650301
0.581458 -0.586018 0.0177917
-0.357975 -0.208242 0.18732
0.39217 -0.205364 -0.00590777
0.503391 0.706444 -0.0988574
0.69409 0.268967 -0.00319316
0.476588 -0.147954 -0.229077
-0.635933 -0.147126 -0.0430177
-0.605662 -0.168428 -0.180629
-0.659143 -0.153967 0.137016
0.687516 0.0564033 0.0961617
-0.359929 -0.296385 0.152899
0.544348 -0.471589 -0.242656
-0.266316 0.939834 -0.0832611
-0.678344 -0.0450775 -0.122428
-0.183926 0.92239 -0.0934231
0.587477 -0.551882 0.0584449
0.402765 -0.516085 -0.0994267
-0.522578 -0.603582 -0.0162955
0.513998 -0.509756 0.264538
0.619946 -0.367739 -0.0925528
0.414859 -0.623689 0.230897
0.552513 -0.425288 0.201485
-0.32667 -0.385783 -0.240861
0.336677 -0.320506 0.260156
-0.588282 -0.254344 -0.134125
-0.342403 -0.418965 -0.327279
-0.577289 -0.357927 0.298715
-0.601009 -0.483667 -0.20316
-0.451097 -0.479812 -0.298337
0.33558 0.855007 -0.084597
-0.41822 0.85318 0.00105974
0.311392 -0.640315 0.188764
-0.365736 -0.164227 0.0731516
-0.335063 0.907318 -0.108943
0.501559 -0.650127 -0.110171
-0.615012 -0.105991 0.0995768
-0.0628941 0.989603 0.105122
0.643604 0.304012 0.0958435
-0.41888 -0.343449 -0.32949
0.465868 0.81301 0.0157634
-0.575502 -0.628321 -0.153591
-0.523524 -0.624845 0.200077
-0.618882 -0.255585 -0.256565
-0.486916 -0.477963 0.302231
0.668111 0.198855 -0.0791149
-0.082234 0.944013 0.0794582
0.476235 -0.327935 -0.0249629
-0.391684 -0.535768 0.0615733
0.501467 0.708796 0.0510524
-0.4554 -0.114371 -0.194851
-0.334701 0.856603 -0.00631344
-0.670751 -0.0881382 -0.03799
-0.352625 -0.238584 -0.161259
0.672112 -0.0718932 -0.129271
0.531947 0.667849 -0.0651392
0.37427 -0.255962 0.312208
0.519575 -0.704637 -0.0243112
-0.384398 -0.712378 0.00177042
-0.639137 0.110951 0.0930618
-0.662298 0.42728 -0.0358519
-0.192622 0.919746 0.0860394
-0.605222 -0.45977 -0.130273
-0.546266 -0.270158 -0.265363
0.389025 -0.254367 -0.117887
-0.483125 -0.297391 -0.107519
-0.474328 0.742548 0.0146979
-0.178191 0.96891 -0.0693565
0.299814 -0.529571 0.0324588
-0.553745 0.637346 0.0211591
0.3627 -0.17292 0.185271
-0.664268 0.0259691 -0.000919795
0.61097 -0.418649 -0.251199
-0.485795 -0.233768 0.0636352
0.444102 -0.500327 0.126273
-0.207782 0.958465 0.123879
-0.317931 -0.496661 0.106276
0.594446 -0.512357 0.142122
-0.629538 0.450165 0.0459149
-0.608073 -0.424754 0.302755
-0.281327 -0.642933 0.0576183
0.664794 0.0915916 0.0121703
-0.411575 0.801226 0.117817
-0.696002 0.282207 -0.0137893
-0.639682 -0.264341 0.0620064
-0.331396 0.85854 0.108177
-0.615235 -0.402984 -0.139636
0.635262 -0.280878 -0.157489
-0.692928 0.182795 0.121048
-0.442591 -0.256182 0.112034
0.386584 -0.0395029 -0.0312909
0.312128 -0.688694 -0.0825097
0.507874 -0.281654 -0.288811
0.5355 -0.330373 0.287915
0.559044 -0.61071 -0.111762
0.264409 0.89223 -0.0111723
-0.364293 -0.459096 0.145693
-0.622955 -0.359205 -0.295008
-0.604172 -0.465723 0.116327
0.648649 -0.204963 -0.027277
0.657611 0.525257 0.0794907
0.344602 0.848964 0.0884703
0.427712 -0.450764 -0.324707
0.660513 0.000799478 0.0533105
-0.461741 -0.537787 0.276967
-0.373098 -0.695521 0.0976949
0.467674 0.811306 -0.12551
0.528657 -0.107358 0.121651
-0.482885 0.738763 -0.125832
-0.0161743 0.958033 -0.125832
-0.360356 -0.502279 -0.106802
-0.359116 -0.394919 0.332115
0.567534 -0.664982 -0.152272
0.043047 0.990529 0.0792925
-0.69562 0.355367 -0.0131427
-0.641649 0.192186 -0.12146
0.64383 -0.232291 -0.165562
0.625017 0.463281 0.0203772
-0.653878 0.541356 -0.122652
0.315925 -0.438198 -0.205673
0.621687 -0.357871 0.158808
0.505855 0.772715 -0.125832
0.691011 0.169429 -0.0402909
0.425876 -0.700177 0.00521198
0.591129 -0.531175 -0.0176243
0.483266 -0.589218 -0.224018
-0.289731 -0.595276 -0.146588
0.38266 -0.0597232 0.0336575
-0.583769 -0.581438 0.174407
0.28142 0.88451 0.0995809
0.355413 -0.214248 -0.163177
-0.645348 0.340949 -0.0692945
0.228444 0.953236 -0.0837379
-0.308077 0.871034 -0.0492023
0.636874 -0.133262 0.109791
0.188247 0.965931 0.0833796
-0.5807 -0.300581 0.27587
0.645775 0.55651 -0.0680826
0.454982 -0.448468 -0.125215
-0.50404 -0.178775 -0.228314
-0.601466 -0.156179 0.014282
-0.53122 -0.554571 0.19998
0.618747 -0.236067 0.205298
0.0397874 0.948053 -0.0924613
0.635848 0.0532078 0.014643
-0.612504 -0.418472 0.0495141
-0.514836 -0.0609524 0.0161182
-0.637276 -0.277982 -0.145847
0.584463 0.674616 -0.0187122
0.360072 -0.187825 -0.223085
-0.542553 0.734108 -0.083682
-0.650028 0.207522 0.123879
0.56632 -0.109234 0.053768
0.602401 -0.467245 0.0531427
-0.643147 0.24062 -0.00527233
-0.647533 0.489758 -0.0828442
0.371352 0.831044 -0.0635826
0.361375 -0.539332 -0.0300465
0.192265 0.919397 0.0249321
-0.579831 0.588962 0.102977
-0.570571 -0.517812 -0.247624
-0.656255 -0.170346 0.0445607
0.339896 0.903805 0.00531162
0.602584 -0.466208 -0.0788882
-0.5048 -0.0763271 -0.105551
-0.603522 0.534417 0.000802511
-0.418967 -0.5195 -0.0984263
-0.468019 -0.37248 0.168803
-0.643448 -0.242977 0.00697292
0.629829 -0.0134355 -0.0493772
0.572482 -0.636922 0.021092
0.467549 -0.212259 0.283316
-0.689059 0.0576874 0.0308015
0.066474 0.984787 -0.125832
0.572334 -0.339503 -0.254901
0.0131334 0.94892 -0.0345932
0.459825 -0.373904 0.332638
-0.485675 -0.282923 -0.0390952
-0.659784 -0.150333 -0.12501
0.447965 -0.439095 0.328826
0.607651 -0.139211 -0.115572
-0.033131 0.991106 0.0119334
0.654462 0.509465 0.123879
-0.593369 -0.202101 0.144608
-0.360102 0.892215 0.120454
0.190637 0.919893 -0.120544
-0.383912 -0.0706416 0.14461
-0.538957 -0.510688 0.176847
-0.689423 0.0694741 -0.0801611
0.550711 -0.594252 0.238066
0.690378 0.389823 0.120281
-0.203741 0.916366 -0.0305355
-0.370851 -0.135221 -0.00334566
-0.447965 -0.215527 -0.0168496
-0.553197 0.638171 -0.0727818
0.623296 0.555622 0.0701665
-0.508026 0.702613 -0.115676
0.0987627 0.970067 0.09989
0.511936 -0.701392 0.0421602
0.393156 0.849833 -0.0969368
0.5686 -0.335168 0.188882
0.395068 -0.539817 0.0533949
0.667124 0.495546 -0.0994196
0.453827 -0.225528 0.0562782
-0.440031 0.776951 -0.0719003
0.569251 -0.105002 -0.0430309
0.470689 0.74469 -0.000574114
0.141597 0.977953 0.0843282
0.625412 0.603271 -0.0827527
0.469943 -0.517729 -0.280289
-0.64077 0.388872 0.102609
0.440972 -0.661079 0.15385
0.561748 -0.582581 -0.151671
-0.142397 0.978134 -0.0922396
0.552653 -0.694869 -0.0974899
0.38329 -0.506079 -0.305204
0.389228 -0.0545827 -0.101145
0.640327 0.377772 0.0796666
0.541139 -0.225664 -0.253003
0.536547 -0.315924 -0.283819
-0.643916 -0.240327 0.173473
-0.17358 0.970098 -0.0159823
0.549223 -0.169986 -0.206271
-0.433256 0.783383 0.0814428
0.318345 -0.424468 -0.271142
-0.222561 0.910227 0.0493219
-0.161123 0.957938 0.0414129
-0.692567 0.171112 0.0163155
-0.589556 -0.548621 -0.114374
0.394375 -0.364758 0.332761
-0.396618 -0.205992 0.0097099
-0.628597 -0.0289454 -0.0629838
0.688249 0.0801038 0.0600635
0.440056 -0.533123 0.0635203
0.474132 -0.339866 0.0476149
-0.507337 -0.293222 -0.290821
0.415279 -0.668389 -0.172228
-0.354027 -0.539957 -0.0158319
-0.666097 0.0851223 0.000618486
-0.558553 -0.138371 -0.158388
0.619542 -0.0717783 0.119064
0.694443 0.280379 0.0835606
-0.629659 -0.182707 0.0899008
0.362927 -0.436692 -0.154971
0.602956 -0.325618 0.255252
-0.380006 -0.334243 0.164904
-0.301826 -0.52668 -0.128042
-0.427478 0.788138 0.0277606
-0.336445 -0.473972 0.315859
-0.607563 0.524595 0.0626794
-0.629024 -0.324778 0.157292
0.531434 0.668622 -0.00712477
0.57101 -0.64527 0.102517
0.185002 0.966767 -0.0835559
-0.416878 -0.690506 0.0700353
-0.336385 -0.330686 0.209344
-0.377587 0.881378 -0.0478877
0.41559 -0.417073 0.165761
-0.579884 -0.464994 0.248746
-0.520034 0.731758 0.0134168
0.667836 0.189964 -0.0106894
-0.652852 -0.0511706 -0.025938
0.693601 0.253133 0.037278
0.566381 -0.576373 0.160744
0.591639 -0.203386 -0.0785384
0.59295 -0.520846 -0.106741
0.64209 -0.103681 -0.0789614
0.608997 -0.429838 0.138739
0.581255 -0.587166 0.205451
0.321631 -0.405835 0.196529
0.601588 0.535462 0.0178293
-0.589555 -0.301437 -0.281228
0.531377 -0.571786 -0.218703
0.63916 -0.258774 0.135932
0.39602 -0.702525 0.08778
-0.684482 0.359743 -0.125832
-0.656396 0.0364687 -0.125832
0.400066 -0.697113 -0.106541
-0.275922 -0.673591 0.111027
0.426178 0.78797 0.0257831
-0.373155 -0.122153 0.146455
0.337518 -0.315737 0.32894
-0.432117 -0.586668 0.264431
0.58433 0.577408 -0.124923
-0.502509 -0.613428 -0.179966
-0.686676 0.421635 0.111795
-0.513738 0.767406 -0.0800411
-0.407934 -0.544764 -0.0409934
0.31859 -0.574033 0.260209
-0.540569 -0.591967 -0.107102
-0.590696 -0.542149 -0.16794
-0.559926 -0.0896734 -0.0333742
-0.286716 -0.612373 -0.0629706
-0.386043 -0.368188 -0.167587
0.568979 -0.377898 -0.228273
-0.627143 -0.335446 0.00322126
-0.694065 0.219578 0.0823375
-0.661996 0.516258 0.0218108
-0.614634 -0.267916 0.219386
0.345659 -0.269563 -0.200064
-0.377825 -0.698347 -0.0886334
0.405685 -0.437171 0.327962
0.581267 -0.448623 -0.254166
0.658483 0.439074 0.032166
-0.309435 -0.483528 -0.276505
-0.566621 0.702149 -0.0674004
-0.548128 -0.658877 0.168353
-0.576243 -0.243875 -0.216424
0.630425 -0.0100539 -0.117903
-0.366092 -0.162208 -0.090071
-0.615362 -0.196115 -0.0413157
-0.263156 0.893374 0.0346427
0.400714 -0.0975092 -0.183569
-0.638303 -0.1903 -0.200229
0.33449 -0.332907 -0.254358
0.397371 -0.202033 0.284689
-0.375786 -0.64579 -0.195347
-0.573748 -0.313868 -0.177351
0.283952 -0.619523 -0.136684
-0.625634 0.466228 -0.0439774
-0.569315 -0.365154 -0.252368
-0.687808 0.0172702 -0.0454893
-0.1536 0.931145 0.0758062
0.662533 0.018477 -0.00508017
-0.638146 0.0789072 0.0634094
-0.635427 -0.263028 0.2612
0.363661 -0.167469 -0.0731529
-0.304371 -0.512251 0.260617
-0.691498 0.136566 0.0651694
-0.603022 -0.173991 0.185927
0.668265 0.203832 0.0836542
-0.416004 -0.245556 -0.103072
0.634159 0.418926 0.121157
-0.380407 -0.315897 -0.326251
-0.686531 0.0196737 0.123879
0.339265 -0.526016 -0.292061
0.604462 -0.157295 -0.0683998
-0.34851 -0.463714 -0.139219
-0.317379 -0.591917 0.244999
0.693184 0.239685 -0.120468
0.219114 0.911034 0.0647037
-0.292352 0.928158 0.00859152
0.513606 -0.427351 0.299845
0.267179 0.938963 0.0222439
0.59669 -0.174745 0.0168452
0.545472 -0.64403 -0.186457
-0.454762 -0.458239 0.0461579
-0.597613 -0.50292 0.197083
-0.641169 0.176661 0.0739202
0.366906 -0.149069 0.055896
-0.314917 -0.452436 -0.188235
-0.695418 0.263277 0.0953311
-0.312756 -0.464699 0.275369
-0.35552 -0.222166 -0.123327
0.63028 -0.30913 0.00353746
-0.387819 -0.10363 -0.196279
-0.330479 0.859334 -0.125832
-0.493206 0.720737 0.0600635
0.608846 -0.193298 -0.208277
-0.696691 0.304481 -0.0793244
-0.581041 -0.28936 0.166916
-0.575171 0.689979 0.10425
0.432975 -0.218052 -0.28873
-0.641293 -0.255203 -0.0569252
-0.393525 0.816081 0.083888
-0.362083 -0.184944 -0.219643
-0.493466 -0.553527 0.255969
-0.552137 -0.221259 0.23394
0.538837 -0.529473 -0.272366
0.574543 -0.486751 0.257765
-0.452483 -0.47117 -0.00494698
-0.603323 -0.470538 -0.032818
0.584486 0.636476 0.0801862
0.425331 0.846554 0.122859
0.353242 0.895534 -0.118672
-0.630327 -0.0566629 0.128981
0.370215 -0.683203 0.130462
-0.103427 0.941147 -0.0915279
-0.39797 -0.0576105 0.1076
0.634732 0.0171349 -0.0848329
0.624295 -0.262058 0.174137
0.632889 0.425403 -0.0965393
-0.672185 0.281957 0.0290304
-0.328105 -0.38078 -0.330821
-0.544778 -0.505407 0.285681
-0.449987 -0.674748 -0.13068
-0.643988 -0.239914 -0.204436
0.591136 -0.366933 0.299697
-0.374794 -0.374435 0.169614
0.609378 -0.37798 0.228915
0.302232 -0.515858 0.104446
-0.607755 0.524128 -0.0753246
0.63894 0.392299 -0.0679311
-0.626561 0.46314 0.10719
0.607309 -0.43941 -0.216339
0.625765 -0.334738 -0.234128
0.65744 0.444393 -0.0297171
0.643426 0.298263 0.0351846
-0.453256 0.826229 -0.0406894
-0.472314 0.744568 -0.0258454
-0.696722 0.345214 0.0739202
0.537562 0.73814 -0.00361611
-0.436062 -0.697448 0.0129166
0.466733 -0.0722948 -0.111746
-0.381495 -0.0748539 0.0514702
-0.659534 0.333341 -0.0228299
0.371574 -0.369651 -0.331481
0.687893 0.0686231 -0.110989
0.528591 0.748506 -0.042488
-0.486988 0.769148 0.0839449
0.494717 0.759887 0.0307304
0.372245 -0.118783 -0.0520227
0.442429 -0.519661 -0.0720203
-0.632989 0.589324 0.00214253
0.52242 -0.595945 -0.0657269
0.276794 -0.660125 -0.00567291
0.512972 -0.074134 -0.092809
-0.304714 0.922126 0.0900086
0.486828 -0.267859 0.034601
0.193887 0.964478 0.0407277
-0.567537 -0.348608 0.20985
-0.332813 -0.350942 -0.289345
-0.643091 0.238799 0.0350005
0.349276 -0.249055 0.238473
-0.259795 0.89477 0.116945
-0.302564 -0.522495 0.148517
0.258792 0.894562 -0.0976546
-0.436029 -0.372535 -0.167356
-0.54636 0.648446 0.0693836
0.58919 -0.542173 -0.225619
0.451397 -0.330041 -0.326463
0.287209 -0.601058 0.106776
-0.645088 0.303388 -0.115803
0.420572 -0.264843 0.124467
0.616605 -0.088433 0.0147914
-0.301894 0.923503 -0.0746648
0.539819 0.656018 0.0692494
0.670021 0.358694 -0.125596
0.388053 -0.71292 0.00868303
0.638811 0.149039 0.00460094
0.475421 -0.653699 -0.148814
0.670181 0.26576 -0.0384689
0.444637 -0.689404 0.072874
0.633931 -0.288432 -0.244759
0.566132 -0.672939 0.137401
0.365752 -0.433209 -0.325741
0.522372 -0.0662871 -0.021313
0.490351 0.7899 -0.0855273
-0.692031 0.153789 -0.0590664
0.609985 -0.233233 0.146928
-0.294068 -0.570674 0.086624
-0.641604 -0.123985 -0.150753
-0.609565 -0.428888 -0.2296
-0.6446 0.287609 0.0803722
0.563165 -0.391504 -0.276187
0.521432 -0.601552 -0.144365
-0.608083 -0.443546 0.166536
0.65703 -0.157432 0.0263372
0.458226 -0.698679 0.0344963
-0.0673748 0.945479 -0.0618695
-0.344625 -0.283952 0.272443
0.673814 0.152289 -0.125832
0.30253 -0.67493 0.121068
0.305305 -0.498425 0.303755
-0.506984 -0.110602 0.177151
-0.0838475 0.987242 -0.0377928
0.560767 -0.564885 -0.25243
-0.462498 -0.414375 -0.15658
-0.523789 -0.59671 0.05541
-0.280264 -0.648967 0.0184414
-0.349936 -0.676687 -0.135287
0.153467 0.974894 -0.0101078
-0.370847 -0.276985 -0.317724
0.654105 -0.165661 -0.171448
0.641082 -0.247874 0.0208297
0.407887 -0.142735 -0.235867
-0.576505 -0.324375 -0.251821
0.581344 -0.288407 -0.272118
0.648751 -0.0659038 0.0815242
-0.694703 0.240166 -0.0348037
0.635111 0.0294076 0.0887306
0.356063 -0.210558 0.245533
-0.509349 -0.0658031 -0.0636091
-0.671309 0.098734 -0.125832
-0.623642 -0.129744 0.155504
-0.451563 -0.476385 -0.0902194
-0.648451 -0.0761298 0.0378168
0.646732 0.0870398 0.123879
-0.591864 0.66613 0.0187901
-0.358315 -0.206313 0.144768
0.459509 -0.155122 0.240842
0.631765 0.586928 0.123879
0.566402 -0.532925 0.226677
0.580585 -0.299279 0.176186
-0.48459 -0.289081 0.133802
0.396112 0.812716 0.0314329
0.367733 -0.144374 0.0956239
-0.611557 0.587808 0.0381168
0.356539 -0.223589 0.0881633
0.571356 -0.345051 0.234791
-0.609425 0.592401 -0.080278
0.119333 0.937677 -0.0123852
0.482425 -0.618725 0.191176
0.564795 -0.245165 -0.228562
-0.433064 -0.0878413 0.161103
0.642693 0.352998 -0.0948302
0.293139 -0.567422 -0.141481
0.566951 -0.181179 0.187496
0.522569 -0.129026 -0.163393
-0.641975 0.202735 -0.0568734
0.575909 -0.225881 0.205819
0.559811 -0.410523 0.254206
0.534346 -0.528311 -0.185494
0.651292 0.0128739 0.121605
0.314413 -0.446774 -0.302956
0.580816 -0.589658 0.127005
0.366972 -0.280796 -0.318841
-0.363652 -0.521525 0.298079
-0.415624 0.833827 -0.0852162
0.666339 0.141532 -0.051678
0.374629 0.882279 0.0713693
0.5704 -0.460444 -0.215988
-0.568275 0.665595 -0.0989184
0.378047 0.82656 0.0841991
-0.493873 -0.218873 0.284746
-0.347595 -0.267109 0.191134
-0.666536 -0.0704698 0.130693
-0.684492 0.290518 0.123879
-0.639277 0.11547 -0.087822
-0.58883 -0.552738 0.245154
0.463996 -0.397346 0.0944313
-0.62717 -0.0370424 0.0214346
-0.597449 -0.503853 0.115591
-0.508507 0.702024 -0.0532071
-0.625355 0.554271 -0.0976709
-0.616952 0.621447 -0.0194442
-0.662414 0.426689 0.0283208
-0.397015 0.848254 0.0354337
0.31651 -0.434878 0.264993
0.519387 0.686729 0.0854476
-0.0164315 0.991949 -0.0887706
0.662385 0.0137036 -0.0573878
-0.580349 -0.600831 0.133304
-0.379357 -0.0869781 -0.0197411
-0.306097 -0.502458 0.200543
-0.464287 -0.225566 -0.0502739
0.55738 -0.283398 0.256377
-0.62449 0.556373 -0.0256248
-0.558791 -0.398208 0.244743
0.624048 -0.0462254 0.046224
0.280474 -0.64885 0.167553
-0.657436 -0.0251713 -0.0933692
-0.4586 -0.663323 0.157438
-0.636857 -0.14188 0.0186203
0.579002 -0.599949 -0.0634871
-0.369299 -0.144026 0.201503
-0.562344 0.708236 0.0496422
0.581603 -0.333014 -0.291529
-0.294006 -0.571028 -0.00394451
-0.597694 -0.204204 -0.142106
-0.311394 -0.672491 -0.128916
-0.511785 -0.321263 0.303535
-0.541423 -0.471385 -0.257444
0.46609 -0.571887 -0.253518
-0.656061 -0.0329726 0.0934827
0.400274 0.821702 -0.125832
-0.36955 -0.142601 -0.147533
-0.0631971 0.945891 0.0145769
-0.640205 0.394791 -0.0616712
0.665388 0.11081 0.0772916
-0.499167 -0.595751 0.204283
-0.473035 -0.0538853 0.0218118
0.486816 0.767812 -0.0453012
-0.350237 -0.70034 0.0618295
0.299261 -0.532705 0.161862
-0.672142 0.280585 -0.0434925
-0.443638 -0.18078 -0.263363
0.48294 -0.289913 -0.131962
-0.323625 -0.611097 -0.225453
0.429094 -0.216466 -0.0386641
0.576694 0.650681 -0.0986225
0.538991 -0.501978 0.180872
