ply
format ascii 1.0
comment Created by Open3D
element vertex 1651
property double x
property double y
property double z
end_header
0.535143 0.672286 -0.0168028
0.746736 0.409545 -0.114721
0.303278 0.754374 0.0301123
-0.719085 -0.540615 -0.167073
0.68302 -0.190822 0.255428
0.049798 0.86873 0.130008
-0.586863 0.624729 0.0194623
0.187031 0.850239 -0.0532017
-0.648202 -0.0699685 -0.292179
0.578597 -0.590911 -0.051584
-0.760759 0.353792 0.0891593
-0.149465 0.801749 0.0493905
0.537895 -0.545774 -0.136516
-0.693532 -0.644268 0.0732066
0.718009 -0.0400275 -0.137953
0.631325 -0.522033 -0.22612
-0.607837 -0.0315112 -0.0727493
0.695266 -0.163426 0.0393239
-0.641303 -0.0772841 0.227477
0.678021 -0.252189 0.158408
-0.559276 -0.554663 -0.219559
-0.657498 -0.364035 -0.107801
-0.31739 0.800513 0.128614
-0.818739 0.0654028 -0.0240372
-0.612566 -0.63068 -0.000175515
0.578395 0.571317 0.13212
0.720958 -0.542282 -0.0731535
0.662169 0.53756 -0.029655
-0.63445 -0.488274 -0.122136
-0.503717 0.625282 -0.0306882
-0.744356 0.0137526 -0.0669523
-0.730223 -0.487918 0.187123
-0.695285 -0.172919 0.205637
0.0289586 0.959804 0.0917211
-0.444675 0.742301 -0.111306
0.65822 -0.359677 0.166766
0.542608 -0.37818 -0.249893
-0.654875 -0.327557 0.205548
0.770514 -0.204694 -0.123573
0.798779 -0.123659 -0.19426
0.822337 0.0891684 0.0630955
0.585181 -0.22113 0.342067
0.750994 -0.301474 -0.000579682
-0.803634 -0.0848653 -0.122629
0.511051 -0.560769 0.0654323
0.71497 -0.538772 0.249316
-0.717579 -0.551899 -0.0180153
0.33893 0.745183 -0.116339
-0.420982 0.757507 0.0298874
0.54731 -0.489838 0.257674
-0.627733 -0.528629 0.0754533
0.463338 0.731954 -0.0432708
-0.768712 -0.273763 -0.106587
-0.694796 -0.16648 0.0722636
0.668534 -0.606994 -0.132336
-0.661997 -0.33704 -0.234928
-0.779228 -0.144849 0.0190571
-0.00812674 0.844162 -0.117732
0.744877 -0.399467 0.240778
0.78086 0.303642 0.132884
-0.512553 -0.525149 -0.0165324
0.763138 0.361768 0.0512776
0.624332 -0.14284 0.202896
0.674139 0.457291 0.13248
0.791752 -0.0849614 -0.0165324
0.0431193 0.870363 0.0165855
-0.696178 -0.151357 -0.291954
-0.277256 0.763387 -0.04336
0.786433 0.294186 -0.104251
-0.112162 0.831295 0.129424
-0.788771 -0.173722 0.282255
-0.76469 -0.300218 0.105966
-0.727814 -0.418739 -0.156467
0.724469 -0.0120408 0.0760378
-0.767038 -0.278065 -0.338373
0.742618 -0.358063 -0.159029
0.61157 -0.0201767 0.0284946
-0.811779 -0.047988 0.213861
0.622377 -0.5614 0.171529
0.667601 -0.0570897 0.274302
0.728688 -0.507948 -0.265486
-0.700352 -0.174537 0.295332
0.171038 0.884115 0.0723081
-0.176467 0.850899 -0.0905446
-0.745867 0.396052 -0.0864553
-0.749451 0.00892534 0.0323144
-0.695352 -0.159875 -0.0993976
-0.570275 -0.22764 0.214534
-0.814082 0.156537 -0.0583241
-0.694206 0.38635 0.0409416
-0.739093 0.251693 -0.0509996
0.719863 -0.0537444 -0.255419
0.657007 -0.372028 0.0268314
-0.648101 -0.53427 -0.224727
-0.704907 -0.105974 -0.204685
0.612238 -0.448786 0.299151
0.540817 -0.46197 -0.0965665
0.238231 0.783186 -0.0307327
0.150121 0.802469 -0.115574
-0.522366 -0.457409 -0.217268
0.615997 -0.14681 -0.165096
-0.725865 -0.0152306 -0.182935
0.744191 -0.398513 -0.329341
0.669157 -0.296817 0.246755
0.679638 0.419333 -0.0570215
0.556488 -0.322673 0.257764
-0.672743 0.513108 -0.117372
0.726873 0.0045003 -0.0634921
0.700321 -0.139181 -0.0417423
-0.583199 -0.120947 -0.269305
-0.599023 -0.246824 -0.364078
-0.513204 -0.507243 0.0910474
0.647649 -0.428016 -0.0982287
0.817933 0.19387 0.0211691
0.422182 0.755792 -0.116069
-0.724483 -0.460501 -0.324892
0.716072 -0.260491 0.305757
-0.59726 -0.372254 0.164745
0.816574 -0.0158507 0.0790036
0.7217 -0.462015 0.0830929
0.575654 -0.322315 -0.197675
-0.796736 -0.129082 0.202446
-0.269363 0.824468 0.0649836
0.795779 -0.125181 0.176653
0.598493 -0.368039 0.342471
-0.679574 -0.251899 0.235565
-0.100506 0.808519 -0.0207118
-0.635422 -0.488569 0.147444
-0.704401 -0.0922116 0.11383
0.704124 -0.10814 0.214086
0.78423 0.299716 -0.0148702
0.753549 0.224444 0.131805
-0.108027 0.931536 0.00499248
-0.584958 -0.368081 0.284771
0.0356145 0.976966 0.011688
0.822882 0.0939392 -0.0538307
-0.486921 0.707712 0.0306957
0.645065 0.469313 0.0221131
0.625764 -0.513191 0.105606
-0.717417 -0.478678 0.0182032
0.660389 -0.365085 -0.253397
-0.470548 0.652573 -0.112833
-0.764848 0.0943215 0.0837675
0.75779 -0.276289 -0.178217
-0.75094 -0.296602 -0.027857
-0.696273 -0.633347 -0.13683
-0.557619 -0.414687 -0.329027
0.698872 -0.164869 -0.226795
0.626309 -0.536273 -0.00799437
-0.728151 0.285248 0.0355943
-0.64341 -0.443779 0.0672749
-0.638647 0.470432 -0.0366645
-0.741104 -0.426887 0.320856
0.69895 -0.388193 0.336988
0.601763 0.549266 -0.11535
-0.764562 -0.220027 -0.164601
0.574081 -0.459455 -0.248544
-0.518248 0.679295 0.127806
-0.396531 0.768166 -0.0442139
0.736894 0.0564091 0.0392793
0.520859 0.616174 -0.105239
0.717263 -0.555225 0.102057
0.407005 0.766035 0.0346502
0.221284 0.845461 0.130277
-0.56359 0.575591 -0.0380127
-0.577919 0.559571 0.0616581
0.560516 -0.298557 0.33191
-0.650606 -0.597637 -0.069199
-0.585256 -0.294493 -0.25906
-0.730589 -0.477408 -0.224413
0.820045 -0.00585847 -0.141144
0.0578645 0.815229 0.0747797
0.57808 -0.159451 0.262302
-0.72219 -0.454432 0.0998549
0.768957 0.126449 -0.0985437
-0.744384 -0.412757 0.244328
-0.533612 0.603674 0.12776
0.119175 0.88434 0.016856
0.615417 0.605195 0.0681743
-0.431238 0.685765 0.0772958
0.598566 -0.22321 -0.302109
0.735266 -0.38505 0.162318
0.488863 0.641962 0.122323
-0.621785 -0.0925771 0.0887998
-0.62612 -0.325371 -0.364482
-0.708277 -0.096174 0.198312
0.308956 0.809413 -0.0298343
0.660585 -0.219432 0.341302
-0.671996 -0.06823 -0.0418771
0.767087 0.157596 0.0660168
0.689003 -0.0734941 -0.0764789
-0.635642 -0.132393 -0.192956
-0.349695 0.732848 0.128479
0.0176399 0.820906 -0.0513592
-0.658975 -0.46489 -0.285707
-0.760978 0.176215 0.0767124
0.301441 0.812543 0.0764875
0.631853 0.0162429 0.170946
-0.541218 -0.584649 -0.153906
-0.71222 -0.317904 0.33973
-0.654111 -0.457495 0.27502
-0.576089 -0.454424 -0.16604
0.495492 0.636715 0.046379
-0.677344 -0.0250881 -0.238164
-0.797921 -0.112411 -0.276585
0.396399 0.713119 0.117874
0.74195 -0.435596 -0.25879
-0.0238655 0.872349 0.126458
0.710876 -0.0749225 0.125514
-0.757141 -0.332436 -0.289661
0.664282 -0.32938 0.0999896
-0.681921 -0.235288 0.0497045
-0.817553 -0.0154426 0.148207
0.194317 0.796208 0.0731175
0.767862 -0.295684 -0.282921
-0.0716335 0.874084 0.0404928
-0.5751 -0.493447 -0.077108
0.618086 0.508083 0.123402
-0.657184 0.534608 0.127312
-0.699216 0.370592 -0.0336986
-0.329506 0.797806 -0.00552281
0.596387 -0.37533 0.213546
0.649486 -0.583728 -0.0656942
0.806002 -0.0873556 -0.268631
0.768823 0.120487 0.128345
-0.173136 0.798403 -0.0403496
-0.714192 -0.568646 -0.0884326
0.80885 -0.0550827 0.145871
0.606334 -0.455017 0.152387
0.6877 0.406791 0.077386
-0.506711 0.690984 -0.0608858
0.75233 0.395032 -0.0440792
0.600532 -0.0834784 0.274302
0.563274 -0.405019 -0.155299
-0.671479 -0.286891 -0.184104
-0.697099 0.378561 0.112707
0.663534 -0.0984792 -0.257846
0.727002 -0.43593 0.016226
0.609497 -0.0267157 -0.0431361
-0.686915 0.493379 0.0438183
-0.371506 0.721711 -0.0929715
-0.62234 -0.0823184 -0.141234
0.788269 -0.18631 -0.323949
0.826157 0.0227978 -0.0733783
-0.704536 -0.590877 -0.21601
0.750971 -0.298657 0.0714542
0.58067 -0.478508 -0.0334738
0.466782 0.660814 -0.0396304
0.768081 -0.272718 0.250529
-0.582391 -0.135696 0.209412
-0.671738 -0.0265334 0.17463
0.0983971 0.902282 0.08561
-0.746665 -0.321187 0.038785
-0.686336 -0.203465 -0.339318
-0.659273 -0.555317 0.156116
-0.202598 0.847394 0.0703755
0.567054 -0.518447 -0.194754
0.659356 -0.597235 0.00517178
-0.558529 -0.488848 0.0226976
-0.0621296 0.933553 0.082554
0.693086 0.032367 0.134457
0.788309 -0.168305 0.110415
0.663068 -0.34556 -0.134134
-0.788102 -0.0953389 -0.0550442
0.728228 0.00209115 -0.193091
0.593213 -0.0791495 -0.181452
0.662097 -0.21587 -0.195832
-0.110628 0.859985 -0.0685699
0.819242 0.171585 -0.045787
0.656968 -0.605198 0.127671
-0.553508 -0.572398 0.11711
-0.638114 -0.227469 0.176922
-0.222016 0.787881 0.0266967
-0.522434 -0.4584 0.171844
0.655749 -0.544881 -0.161455
-0.603534 -0.0163351 -0.151974
-0.370494 0.779856 0.0713641
0.711892 -0.0822461 -0.193091
0.641914 -0.454999 -0.213808
0.761604 -0.241803 0.158048
-0.749451 -0.325084 0.224241
0.548214 -0.596782 0.0200913
-0.670316 -0.298698 0.0740159
-0.622896 0.0221291 0.0421105
-0.676069 -0.260637 -0.247331
-0.61888 0.591907 -0.0747711
0.70668 0.365381 0.00454274
-0.760387 0.173752 -0.107171
-0.811684 -0.0399601 -0.191159
-0.258185 0.829162 -0.0683906
0.710769 -0.0783134 0.0562653
0.595067 -0.402125 -0.285662
0.722672 -0.535632 -0.140605
-0.785401 -0.180515 -0.261081
-0.639478 -0.462475 -0.0565271
0.75965 0.21817 -0.114721
0.718329 -0.485241 -0.0374283
0.730946 -0.475468 0.232824
-0.708642 -0.603199 0.12439
-0.56895 -0.206829 -0.319141
-0.816447 0.115919 0.0465137
0.767277 -0.00256668 0.184067
-0.69747 -0.153502 0.140389
-0.776424 -0.233526 -0.0465062
0.498975 0.702052 0.0617483
-0.14887 0.876458 0.0198219
0.38303 0.719351 -0.068885
-0.657066 -0.595336 0.0457054
0.79528 -0.124597 0.256326
0.70099 -0.162685 0.313351
0.689131 -0.203727 -0.134763
-0.678299 -0.252722 -0.048843
0.794071 -0.151899 -0.257217
0.781809 -0.141382 -0.0744125
-0.763163 -0.234291 0.144253
0.550804 -0.582672 0.119762
0.686666 -0.208204 0.0872277
-0.683623 -0.254707 0.319553
-0.743626 -0.00443596 0.102551
-0.647426 -0.423414 0.130277
0.673842 -0.282278 -0.0240828
0.585726 0.556327 -0.0518089
-0.818537 0.0653721 -0.0992173
0.723116 0.315316 0.103809
0.701495 -0.166645 -0.316983
-0.804943 0.216684 0.126683
-0.706221 0.464516 -0.0779173
0.751246 -0.374778 -0.00875912
0.67228 -0.299904 -0.247241
-0.700852 -0.360921 -0.306962
-0.70771 -0.0893587 -0.272855
0.798571 0.255753 0.0906423
0.686711 -0.43398 0.2641
0.313895 0.749552 0.110505
-0.784951 -0.192436 0.19301
-0.763517 -0.0266146 -0.114227
-0.529197 -0.600371 -0.00929801
-0.740919 -0.425952 -0.0129831
0.755746 -0.0624508 0.255113
-0.780834 0.293826 0.0746896
-0.814228 -0.0311041 0.0425147
-0.773307 0.31449 -0.071626
-0.562416 -0.269154 0.263562
-0.702138 -0.124613 -0.032081
-0.64213 0.558752 0.0539284
0.298857 0.756493 -0.0669523
-0.271858 0.766 0.0985513
0.674853 -0.280637 -0.11917
0.659136 -0.374842 -0.324667
0.533003 -0.480344 0.113021
0.710797 0.356082 -0.114901
-0.777071 -0.236732 0.276458
0.778012 -0.15739 0.0398638
-0.0136989 0.937162 0.0394586
-0.737531 -0.371957 0.109112
0.681037 -0.256001 -0.339497
-0.0336339 0.817826 0.00863197
-0.547031 0.589128 -0.0985437
-0.666379 -0.317028 -0.0650206
0.603324 0.529968 0.064938
0.761324 -0.244172 0.0263371
-0.292956 0.756357 -0.105149
-0.624391 -0.548958 -0.104385
-0.537937 -0.378407 0.212782
-0.359485 0.727148 -0.0119944
0.0867198 0.811275 -0.0526172
-0.691515 0.0328762 -0.101015
0.357697 0.730396 0.00714903
0.764413 -0.316935 -0.343766
-0.552726 0.653248 0.0759476
-0.740907 0.245545 -0.116293
0.763548 -0.254023 -0.0508648
0.527183 0.679178 -0.104655
-0.010104 0.874099 0.0554114
0.17474 0.851885 0.0180239
-0.656335 0.445403 0.101338
0.776669 0.0408159 -0.0221056
0.648829 -0.409204 0.204694
-0.526832 -0.430697 -0.274203
0.320781 0.804321 -0.104295
0.541715 0.598647 -0.0362158
0.725604 0.000111916 -0.000759972
0.636235 0.575133 0.0157316
-0.806673 0.215503 -0.0385972
0.752083 -0.280106 0.353077
-0.817919 0.0846592 0.126592
0.746831 -0.323189 0.133647
-0.665289 -0.327301 0.141152
-0.560658 -0.493132 0.218264
0.601948 -0.033541 0.140478
-0.764034 0.100076 -0.0595832
0.725132 0.310225 0.0270117
-0.767381 0.0353567 -0.120698
0.65403 -0.391021 -0.0420574
-0.622756 0.0279717 -0.083534
0.62554 -0.090902 0.158902
-0.813526 0.173747 0.0207203
-0.560838 0.646099 -0.0489777
0.0828773 0.811844 -0.115845
-0.723814 -0.237097 -0.303008
-0.740138 -0.352706 -0.13346
0.636477 0.482215 -0.0407091
-0.821227 0.00654888 -0.0800293
0.707236 -0.322727 0.350605
0.577109 -0.543877 0.209906
-0.658532 0.441768 0.0248541
0.722947 -0.52187 0.162408
0.73235 -0.412932 -0.132471
0.247084 0.779165 0.0372575
-0.527646 0.673805 -0.000850117
-0.64154 -0.392197 -0.254296
0.200085 0.838404 -0.116922
0.649093 -0.0145956 0.233813
0.711949 0.465368 -0.101958
0.602914 -0.0315954 -0.143705
-0.666969 -0.321092 0.274885
0.664989 -0.557876 0.215658
0.715106 -0.571803 -0.0177915
-0.635024 -0.483893 -0.183385
-0.707564 -0.606592 0.0130808
0.784101 -0.131383 -0.135481
-0.185359 0.845973 0.129109
0.64028 -0.472897 -0.155524
-0.686443 -0.545665 0.240194
-0.718292 0.315457 0.110235
0.81731 0.0819449 0.133018
0.681161 -0.49933 0.280952
0.728655 0.439788 0.112078
0.525773 -0.434217 0.24608
0.516983 -0.511292 0.0283599
0.594595 -0.563078 -0.123439
0.6898 -0.186843 0.195256
-0.604747 -0.277559 0.184652
-0.650881 -0.21388 0.28576
0.584439 0.631299 0.00899156
0.123045 0.859003 -0.0379681
0.530267 -0.568783 -0.0804334
0.559364 0.583639 0.0743755
0.689508 -0.196708 -0.0106908
0.725435 -0.247524 -0.293571
0.775512 -0.179855 -0.179385
-0.605556 -0.00729287 -0.017836
0.171701 0.799412 -0.0252062
-0.72041 -0.0261174 -0.0067363
0.779821 -0.154859 0.324182
-0.555153 -0.271271 -0.306378
-0.46124 0.661035 0.125604
-0.607646 0.515916 0.0103843
-0.765948 0.0663379 0.0286739
0.777641 -0.219701 0.276593
-0.0522038 0.815174 -0.0557178
-0.700318 0.366416 -0.11135
-0.3183 0.802648 -0.064032
0.823652 0.0684083 0.00243077
0.123237 0.848407 0.0753186
0.75637 -0.336582 0.249496
0.635578 -0.488657 0.02782
0.694434 0.490346 -0.0036357
-0.610308 -0.622802 0.0701516
-0.720753 -0.309731 -0.358192
-0.163704 0.799643 -0.117732
-0.590378 0.54172 0.116931
-0.743649 0.403627 -0.00601712
-0.385403 0.715809 0.0526258
-0.466751 0.656089 0.00962059
0.678908 -0.244927 0.219793
0.749927 -0.114343 -0.241803
-0.742003 -0.145059 0.244014
-0.722028 0.302774 -0.0264642
0.760087 0.206191 0.0213494
-0.77916 -0.14167 -0.144964
0.517656 -0.483132 0.204469
-0.532606 0.601496 0.0227877
-0.75062 -0.302315 0.163262
-0.629463 -0.00560983 -0.203877
0.446414 0.745613 0.0808908
-0.589789 -0.0917906 0.170856
-0.658959 -0.354933 -0.16595
-0.505891 -0.556308 -0.0909042
0.425103 0.69531 -0.0158588
-0.757315 0.198174 0.0118227
0.692351 0.0247552 -0.111036
0.823258 0.0909624 -0.112519
-0.80305 -0.0937629 0.14277
-0.672895 -0.48897 0.229319
0.644352 0.562722 0.114998
-0.760584 0.174805 -0.0430906
-0.087081 0.810441 0.0362233
-0.699082 0.0339827 0.0161814
-0.728696 -0.415223 -0.0982743
0.703281 -0.634959 0.0115533
-0.717961 -0.472347 -0.136111
-0.674636 0.417811 -0.0570215
-0.637776 -0.47292 0.00440802
-0.669744 -0.123528 0.248148
-0.512632 -0.523185 -0.183789
0.659136 0.542359 -0.0933311
-0.606882 -0.425025 0.266212
-0.685899 -0.20964 -0.155119
0.254313 0.833569 -0.0544152
-0.606888 -0.16696 -0.229536
0.446021 0.677552 0.106864
0.782876 0.303073 0.0427841
-0.64832 -0.413013 -0.13701
0.35454 0.731673 0.0735662
0.741557 -0.360689 -0.0793557
-0.756281 -0.0641259 -0.186441
0.674156 0.0475174 -0.0584598
0.355742 0.788635 0.0476827
-0.609421 -0.623987 -0.0993976
0.77417 0.00506495 0.0295278
-0.712007 -0.407376 -0.342778
0.717902 -0.489895 -0.0963862
-0.728016 -0.424066 0.148836
-0.770594 -0.192597 0.0771611
0.765171 -0.0164797 0.127941
0.609374 -0.318131 0.23624
-0.720629 0.444202 0.0423354
0.55619 -0.290943 -0.241444
0.686739 0.409308 -0.112923
-0.743182 -0.133337 -0.263868
0.640858 -0.329506 -0.19808
0.00225977 0.822937 0.114729
-0.632412 0.479178 -0.0955778
0.582299 -0.156219 -0.213404
-0.112779 0.956548 0.0559512
-0.789552 -0.0889287 0.0164964
0.0902474 0.933241 0.015058
-0.721815 -0.227463 0.285985
0.745068 -0.396119 0.297489
0.656687 -0.147904 -0.284899
-0.0829581 0.863511 -0.118001
0.606004 0.526413 0.00391371
-0.277761 0.820642 -0.00291652
0.677324 -0.00564846 -0.169544
-0.767145 -0.29069 0.289984
-0.525225 -0.510734 -0.237445
0.69776 -0.399538 -0.278068
0.649239 -0.36339 0.318115
0.678639 -0.497497 -0.207472
-0.589109 -0.552245 0.155936
-0.44791 0.739844 -0.0430014
0.807137 0.231762 -0.0377433
-0.320693 0.801801 0.0545575
-0.47075 0.721348 0.0954963
-0.715423 -0.0410359 -0.0687502
0.717717 -0.444911 -0.308626
0.760577 -0.0551392 -0.209673
-0.587818 -0.365448 -0.355989
0.803868 -0.0663588 0.0379757
0.0545608 0.815724 0.0124072
-0.779339 0.287345 -0.120742
-0.658942 -0.358595 0.00332925
0.624579 0.0412865 0.0338419
-0.815891 0.124758 -0.00866897
0.771671 0.337729 -0.0689295
0.766654 0.174698 -0.064346
0.619041 0.0280242 -0.0486181
0.146425 0.855831 -0.0996215
-0.695818 -0.155919 -0.166579
-0.770465 0.0553343 0.126862
-0.256708 0.827039 0.128839
0.636178 0.481969 0.0756782
-0.649212 0.00170778 0.132209
-0.651959 -0.126692 -0.326825
0.822192 0.0173029 0.144388
0.760184 -0.310144 -0.22976
-0.677552 0.506469 -0.053381
0.212533 0.79375 -0.0788614
-0.596232 0.53221 -0.0498316
-0.59599 0.61669 -0.118855
-0.622317 -0.0384415 -0.24787
-0.820986 0.0167789 0.00225048
-0.739941 -0.356591 -0.00318696
0.058757 0.993296 0.0591866
0.771614 -0.187351 0.159577
0.73148 0.292705 -0.0983634
-0.48827 0.70446 -0.119619
0.69562 -0.166859 -0.0942296
0.515427 -0.567793 -0.0190941
-0.234773 0.839404 -0.118181
-0.692409 -0.41888 0.266033
-0.803994 -0.0806621 -0.227514
0.772676 0.0329317 0.0770264
0.430271 0.691211 -0.0720301
0.696299 -0.11151 0.277268
0.826527 0.0355142 0.0514569
0.812754 -0.0424931 -0.0674466
-0.607944 -0.507361 -0.267417
0.736108 -0.395112 -0.199068
-0.752838 -0.282197 -0.216953
0.455902 0.737908 0.0273713
0.472534 0.724519 -0.104385
0.66814 -0.306058 0.155757
0.778697 -0.00189109 -0.0851071
0.740792 0.263972 -0.00682644
0.642381 -0.290802 -0.303817
-0.652578 -0.0783451 0.0319994
0.672258 0.511792 0.13248
0.0259303 0.872787 -0.0367546
-0.699914 -0.137772 0.0207649
0.288786 0.817691 0.130997
-0.679332 -0.201152 -0.263508
-0.651549 -0.385257 0.248507
0.157878 0.922635 0.0361787
-0.0564733 0.828967 0.129603
0.731081 -0.41045 0.0973834
-0.812565 0.196548 0.0699713
-0.612229 -0.456437 -0.311861
-0.600287 -0.0401087 0.0903728
-0.658745 -0.597056 0.100844
-0.599692 -0.599737 -0.0512244
-0.720427 -0.540454 0.164879
0.545377 -0.346196 0.307914
-0.742149 0.409118 0.0803519
-0.7104 0.338364 0.0594114
-0.783171 -0.124604 0.0710501
0.681161 0.0513431 0.0815198
0.718178 0.455966 -0.0488876
-0.813621 0.143488 -0.120877
-0.777116 0.30425 0.0212146
0.704158 -0.116318 0.00669929
0.0852924 0.958708 0.0947771
0.50403 0.629805 -0.00637671
0.599471 -0.437557 -0.119664
-0.418146 0.696109 -0.0990826
0.0540497 0.929549 0.0554114
0.698215 0.484424 0.0693868
-0.63803 -0.475781 -0.236591
0.663214 -0.57286 0.0856546
-0.621026 -0.563454 0.00912628
0.740338 0.0178953 -0.136606
0.519505 0.684538 0.131895
-0.653201 -0.390419 0.0465137
0.647576 -0.422738 0.039953
0.820899 0.131376 0.00629513
0.595971 0.621341 0.128255
-0.719787 -0.541212 0.0359093
-0.333523 0.73853 -0.0598526
0.729822 -0.202111 0.292456
0.819714 0.151052 0.0690728
-0.539341 -0.362763 -0.308715
-0.627778 -0.530448 -0.158894
-0.738739 -0.358167 -0.235467
0.667433 -0.547454 0.147263
0.780433 -0.227079 -0.278967
0.58454 -0.167413 0.316498
0.770384 0.0939025 0.0825986
0.62586 -0.268423 -0.195608
0.516882 -0.497699 -0.127349
-0.10841 0.860433 -0.0145106
-0.512261 -0.518801 0.0359539
0.539164 0.606742 0.131985
-0.647965 -0.416027 -0.0842532
-0.727449 -0.501515 0.123222
-0.727224 0.43365 -0.118451
0.700057 -0.13512 0.0944175
0.153406 0.852318 0.130457
-0.654791 -0.384528 0.174046
-0.799961 -0.112823 0.256416
0.737788 -0.182038 -0.281977
-0.755461 -0.0769662 0.217096
-0.558833 -0.421016 -0.206213
0.0672227 0.819014 0.130053
-0.776705 -0.157235 -0.036081
0.631163 0.58293 -0.0525281
0.101914 0.862106 0.126098
-0.622947 0.586484 0.011688
-0.775542 -0.232637 -0.311367
-0.162441 0.852933 -0.0399454
-0.22432 0.786757 -0.0383277
0.630652 -0.5096 0.171844
-0.701772 -0.368639 0.287289
0.421277 0.759585 0.12466
0.769839 -0.206236 -0.0712664
0.00487695 0.99707 0.0640841
0.560779 0.583007 -0.0891963
-0.771414 0.0140646 -0.01478
0.753285 0.391592 0.00800293
0.713364 -0.586627 -0.149547
-0.39826 0.767309 -0.096297
0.80307 0.243073 0.0297973
0.690592 -0.537942 -0.238029
0.679588 -0.239063 0.274526
0.597684 -0.505498 0.253316
0.149407 0.802485 0.0417509
-0.665991 -0.314456 -0.282247
0.726255 -0.227841 0.348043
-0.681372 -0.651261 0.0163161
0.719976 -0.35246 -0.339497
0.676022 -0.265076 0.108258
-0.67267 -0.288044 0.174136
0.532397 -0.410865 -0.206483
-0.597788 0.615825 0.0692521
-0.662778 -0.569147 -0.187788
0.697586 -0.0934558 -0.126854
0.640549 -0.186878 0.226219
0.255555 0.832767 0.0888899
0.771249 0.0746204 -0.0607511
0.762565 0.35977 -0.114676
0.627848 -0.342181 -0.299953
-0.58684 -0.210907 0.276233
-0.772099 0.0062408 -0.162938
-0.687415 -0.207239 0.123492
-0.733729 -0.183077 -0.324219
0.503586 0.698569 -0.0477642
-0.752911 -0.282828 -0.165545
0.566959 -0.231251 -0.262385
0.804092 0.241609 -0.104026
-0.656947 -0.36807 -0.0566173
-0.789446 0.266521 -0.0629978
0.341963 0.737428 -0.04399
0.587338 -0.11044 0.232689
0.765952 0.352792 0.101697
0.710174 -0.601392 -0.0831299
0.687002 -0.434126 0.317665
-0.721168 -0.528309 -0.216728
-0.150336 0.801655 0.100529
-0.420948 0.694144 0.022967
-0.649056 -0.646372 -0.033339
0.564347 -0.569085 0.167126
0.809115 0.223871 0.130591
-0.122154 0.847956 0.0821944
-0.597658 -0.196472 0.180067
0.72789 -0.510155 -0.21165
0.661647 -0.339116 0.213321
0.705174 -0.332458 0.300634
0.755026 -0.0638803 0.204199
-0.591924 -0.474044 0.0705558
-0.712305 0.00200595 -0.137055
0.636555 -0.486951 -0.0612008
-0.588407 -0.576347 -0.180239
-0.0395379 0.869702 -0.0813775
0.603145 -0.266685 0.355413
0.663788 -0.336532 -0.0088037
0.365937 0.784371 -0.0925664
0.0497078 0.869411 0.0792731
-0.673372 -0.605416 0.16079
0.712881 -0.580937 0.0572995
-0.134361 0.856484 -0.118226
0.302509 0.812162 0.0258883
-0.67344 -0.509969 -0.261172
-0.547526 -0.349243 0.253001
-0.709912 -0.590089 -0.16177
-0.811953 -0.0404187 -0.100027
-0.564124 0.643956 0.127042
-0.684354 -0.219376 -0.0863206
0.816288 -0.0129314 0.189864
0.738709 -0.154497 0.2752
0.807312 -0.0765947 -0.178442
-0.725533 -0.429975 -0.208236
0.770497 -0.257023 0.312274
-0.614307 -0.34971 -0.244769
0.738136 0.426224 0.0645784
0.706085 -0.615292 0.123761
-0.624643 -0.485265 0.209277
-0.759371 -0.134023 -0.311457
0.671376 0.431038 0.00288051
0.600695 -0.5767 0.120256
-0.782727 -0.207124 0.319283
-0.686612 -0.416172 -0.290246
0.679841 -0.496934 -0.269035
-0.595828 -0.134039 -0.316085
-0.20835 0.793555 0.0784192
-0.0461264 0.953515 0.00503706
0.640246 -0.453836 0.256866
-0.553508 -0.332731 -0.271327
-0.703902 0.0320114 -0.0439445
-0.704266 -0.622322 -0.0887466
0.675145 -0.0967971 0.158094
0.579872 -0.179658 -0.262205
-0.770117 -0.193873 0.0163161
-0.741233 0.246634 0.064309
0.608475 -0.0272159 0.0914516
0.737091 -0.223253 -0.340126
0.610559 0.520233 -0.0755359
-0.707699 -0.293795 0.29641
0.604161 -0.022363 -0.0924317
-0.7595 -0.332937 0.335865
-0.61269 -0.114481 0.243968
0.536278 0.602953 0.0245401
-0.721393 -0.0269742 0.0521315
-0.651869 0.543742 -0.0842988
-0.742514 -0.14862 0.293715
0.569717 0.643703 -0.0482586
-0.81875 0.0658634 0.0502889
0.562257 -0.235782 0.288141
0.192451 0.805381 0.130591
-0.652487 -0.257491 -0.357067
0.663804 0.534858 0.0252583
-0.661149 -0.579562 -0.116474
-0.721309 -0.529686 -0.117822
0.210196 0.846992 0.0759932
-0.28572 0.816945 -0.107351
0.805564 -0.068232 0.265358
0.714027 -0.0610105 0.172608
0.639981 -0.0644657 -0.0513146
-0.684843 -0.222502 0.191392
-0.600113 -0.415176 0.140703
0.606694 -0.0789068 -0.228682
0.766896 -0.0192475 -0.171612
-0.690656 -0.429255 0.31398
0.649727 -0.0982959 0.306521
-0.177287 0.797849 0.00917086
-0.762803 0.139982 0.109696
0.738781 0.268561 0.116347
-0.54643 -0.398974 0.169103
-0.680186 -0.243626 0.00144215
-0.664705 -0.578495 0.201682
-0.7615 0.194071 0.126817
-0.667553 -0.330512 0.324182
-0.702278 -0.121776 -0.132111
0.627112 -0.533922 0.0443126
0.621647 -0.51236 -0.179161
-0.721573 -0.248231 -0.350552
-0.563186 -0.604909 0.0307859
-0.527781 -0.505455 -0.0770188
-0.714074 -0.0561585 -0.209628
-0.0614105 0.867096 0.0957201
0.512641 -0.514825 0.0817902
0.65439 -0.382754 0.112302
0.73872 -0.364449 0.206401
0.769075 0.344721 -0.00372585
0.591534 -0.595702 -0.00228749
-0.747928 -0.381848 -0.311276
0.683302 -0.228587 0.0334823
-0.734138 -0.457065 -0.277304
0.700293 -0.0527904 0.238217
0.664299 -0.164356 -0.169949
-0.505408 0.692523 0.0772958
0.765811 0.177505 0.129199
0.568604 -0.599149 0.0650728
0.636027 -0.0505824 0.0573886
-0.123683 0.805244 -0.0729742
0.65089 -0.413238 -0.236725
-0.760994 -0.244964 0.0970238
0.687536 0.50085 -0.0797598
0.750078 -0.308598 -0.0535613
-0.507705 0.621717 -0.116563
0.624563 -0.182667 -0.297391
-0.748631 -0.380496 0.33227
-0.649982 -0.12392 0.112482
0.429462 0.756292 -0.067716
0.712965 -0.509492 0.0854297
0.49075 0.709033 0.0104299
0.712786 -0.0959838 -0.284
0.724189 -0.0015315 0.149061
-0.766134 -0.284056 -0.284045
-0.398872 0.709973 0.12102
0.751229 -0.310511 -0.141324
-0.522507 -0.473233 0.123942
0.783118 -0.13212 -0.0221056
0.683542 -0.247351 -0.248724
-0.294281 0.755949 0.0022059
-0.778093 -0.212676 -0.220638
0.666714 -0.562076 -0.115216
0.813501 -0.0364969 -0.0197687
0.813013 0.213024 0.0659266
0.719364 -0.284831 -0.341339
-0.733043 -0.473696 0.232869
0.783888 -0.122115 0.122548
-0.610196 -0.570898 0.0897884
0.398225 0.712479 0.0253484
0.735198 0.0487041 -0.0884772
-0.574937 -0.47906 -0.125012
0.71355 0.344297 0.0585575
-0.769741 0.00136602 0.148881
-0.81397 -0.0337599 0.102011
0.645858 -0.4279 0.142095
0.59072 -0.369503 -0.171477
-0.142955 0.921371 0.035729
0.0425348 0.857578 -0.117507
0.672499 -0.514309 0.193954
-0.766123 0.0578137 -0.0324406
0.525891 0.679811 0.029618
0.708815 -0.0927218 -0.0372044
0.386906 0.71876 -0.116159
0.732985 0.044393 0.100304
-0.741519 -0.423855 0.194268
-0.629879 -0.2792 -0.25479
0.30512 0.753643 -0.0190495
0.562976 -0.436753 0.304184
-0.747637 0.379076 0.126952
-0.768443 0.326285 0.126862
-0.669132 -0.329395 -0.345249
-0.794877 -0.132853 -0.0930607
0.638061 -0.244465 0.24352
0.708966 0.0387168 -0.0278124
0.821124 0.135549 -0.0971955
0.74286 -0.344573 0.0265174
0.759914 -0.0822233 -0.277124
0.0119212 0.821639 0.066421
0.613025 -0.189036 -0.185767
-0.768359 -0.200402 -0.121956
0.715572 -0.56033 0.205277
-0.665941 -0.318319 -0.11508
0.795021 0.268168 -0.0648859
-0.598838 -0.322858 0.296994
-0.696633 -0.149889 -0.244994
-0.771684 -0.0230623 0.194448
-0.703823 -0.11773 0.0744647
0.664113 -0.332207 0.0531647
-0.713052 -0.0784095 0.241452
0.0805801 0.865154 -0.011096
0.694496 0.415085 0.132569
-0.576319 0.561629 0.0148787
0.20983 0.794078 0.0131709
-0.712474 -0.506443 0.0664665
-0.682607 0.500043 0.108662
0.541547 -0.366879 0.254618
0.657962 -0.626622 0.0621069
0.759397 -0.252 0.203615
0.706219 -0.354216 -0.294874
-0.665604 -0.101045 -0.152153
-0.767544 0.0368178 0.0841716
-0.709626 -0.51931 -0.0503259
0.517904 -0.497903 -0.0778272
0.591354 -0.464669 -0.0766137
0.128028 0.805526 -0.0732436
-0.695909 -0.49045 -0.303682
0.766183 -0.230566 -0.176824
0.762183 0.199226 0.0883054
-0.597608 -0.114188 -0.212415
0.756757 -0.269899 0.114279
0.704568 -0.1177 -0.0826801
0.798324 -0.130465 -0.298155
-0.606208 -0.394193 -0.224278
-0.389835 0.771422 0.127177
-0.616392 0.00575837 0.0850255
0.616502 -0.185869 0.344583
-0.507205 -0.561019 0.0174394
0.222183 0.845404 -0.0231388
0.567127 -0.347638 -0.286066
0.670483 -0.568245 -0.198619
-0.618386 0.50089 0.122638
-0.625638 -0.540898 0.121424
-0.723927 -0.444014 0.0519512
0.738625 -0.368528 0.119357
0.76994 0.105365 0.0379311
-0.0185123 0.967268 0.0903283
0.702124 -0.138291 -0.264272
0.662844 -0.329758 0.282704
-0.622402 -0.544411 -0.0549996
0.639218 -0.406385 0.305173
-0.737358 -0.451422 0.279694
-0.683343 -0.499612 0.279334
0.654783 -0.390497 -0.129101
0.765964 0.184756 -0.0188692
0.672955 -0.273397 0.314924
-0.255405 0.773193 0.054603
-0.733656 -0.386404 -0.196282
-0.610763 0.604012 -0.0289358
-0.726965 0.287404 -0.0842988
-0.689409 -0.199007 0.242845
0.790594 -0.0932597 -0.0665035
0.591376 -0.122711 0.296096
-0.59881 -0.328783 0.179079
0.736125 -0.465766 -0.219335
-0.0562425 0.826401 -0.117911
-0.617302 -0.517993 0.0267412
0.685778 -0.210853 0.140568
-0.716692 -0.0486675 0.107584
0.720369 -0.0320511 -0.0930607
0.63728 0.00483315 -0.150401
-0.6298 -0.359841 0.284008
-0.600018 -0.408507 -0.34462
-0.0153839 0.873255 0.0101595
0.530952 -0.526833 0.200784
0.739052 -0.432729 0.200963
0.76238 -0.248919 -0.116384
-0.344813 0.733775 0.0832276
-0.38224 0.774571 0.0132601
-0.600523 -0.0790593 -0.272945
-0.53614 0.598715 0.0680386
0.596224 -0.480883 0.0918558
-0.534836 -0.472046 -0.15867
-0.605 -0.546927 -0.217762
0.592933 -0.490761 0.00854182
-0.65815 -0.638563 -0.0873538
0.681184 -0.247457 -0.149502
-0.635232 -0.211375 -0.241534
-0.753967 0.367325 -0.120653
-0.785637 0.278391 -0.0193636
0.696625 -0.148203 0.233768
0.737709 -0.43739 0.264415
-0.760557 -0.317795 -0.113058
0.644823 -0.0532946 0.00894698
0.613946 0.606911 -0.0183749
-0.706069 0.350756 0.0158674
-0.450438 0.66937 -0.0761194
-0.75045 0.217567 -0.0781868
-0.608388 -0.519358 0.184696
-0.758843 -0.091749 -0.285258
0.733541 -0.182946 0.336988
-0.703604 -0.374413 0.33191
0.656373 0.453457 -0.0870398
-0.710962 -0.589616 0.0761725
0.543541 -0.405473 0.216377
-0.729628 0.43048 -0.0601666
-0.540745 -0.473487 0.080127
-0.569668 -0.281135 -0.350912
-0.712512 -0.0686421 -0.0186454
0.770474 0.0875904 -0.017836
-0.634058 -0.0606677 -0.00480462
-0.700458 -0.362206 -0.351765
-0.714052 0.326081 -0.0638973
-0.679107 -0.245268 -0.198844
-0.620211 -0.574612 0.179169
0.625461 -0.547869 -0.0775577
-0.687331 -0.560714 -0.244186
0.717408 -0.293597 -0.297256
0.585731 -0.544696 -0.163882
0.791892 -0.105602 0.296545
0.68343 -0.455333 -0.247825
-0.635024 -0.488848 0.0569399
-0.677596 0.416128 0.127177
-0.751271 -0.374954 0.215613
-0.664452 -0.329729 0.0427395
-0.795079 -0.136964 0.150904
-0.544705 -0.498708 -0.032081
-0.759017 0.35725 -0.0550442
0.725194 -0.504428 0.283109
-0.680152 0.0067044 -0.185632
0.514674 -0.553079 0.108977
-0.709204 -0.0854418 -0.0731535
0.0240036 0.82004 -0.0952182
-0.653375 -0.621272 -0.129146
-0.757675 -0.33738 0.0784648
0.806508 -0.00376532 -0.183789
0.76689 0.171265 -0.10843
-0.765443 -0.0172792 0.0663318
-0.75122 0.381515 0.0314605
0.617794 -0.590451 -0.0957126
-0.817132 0.0966554 -0.0551344
0.749314 -0.165659 -0.322915
-0.653796 -0.381778 -0.213269
-0.452887 0.735884 0.00854182
0.405848 0.709026 0.0750491
0.00843323 0.822148 0.0225173
-0.603107 -0.432116 -0.197136
0.637516 -0.490527 -0.258879
0.534581 -0.438649 -0.14775
0.336987 0.796766 0.128614
0.771597 -0.191068 0.0673204
-0.768908 -0.276258 0.0672749
-0.58493 -0.465653 0.242395
0.636544 -0.479194 0.131176
-0.563422 0.576226 0.110999
-0.672378 -0.177943 0.166766
-0.804892 -0.0845879 0.185595
-0.551356 0.654234 0.0303817
0.828864 0.0471459 -0.0370697
-0.664081 0.526582 0.0267868
0.0922415 0.874793 0.0499739
0.605745 -0.103678 -0.14748
0.772378 -0.269347 -0.239691
0.708449 -0.0497096 -0.0454274
0.745809 -0.102588 0.241048
-0.505897 -0.563214 -0.0368448
0.705477 -0.118138 -0.217088
-0.574869 -0.18222 0.214444
-0.759831 -0.318766 -0.248319
-0.245603 0.777298 -0.0784562
-0.7407 0.247404 -0.00768035
-0.729409 -0.415918 -0.0547292
0.782927 -0.00168306 -0.0289358
0.573053 0.640719 -0.115485
0.705607 0.369519 -0.0738727
0.769075 -0.229711 -0.0139261
0.365263 0.740302 0.131311
0.424766 0.75826 -0.00422016
-0.713187 -0.0621784 -0.152288
-0.723809 -0.523733 0.238037
-0.488478 0.706236 -0.0246217
0.090505 0.978979 0.0333922
0.604172 -0.488287 -0.225312
-0.59089 -0.253141 0.291961
0.661456 -0.161859 0.330922
0.28395 0.76284 0.0678593
0.682223 -0.240062 -0.106228
-0.650668 -0.0715892 -0.0793101
-0.662969 -0.0993202 0.0776109
-0.621941 -0.0434114 0.183169
-0.105275 0.807926 0.0753186
-0.496494 0.631743 0.110819
-0.821839 0.0108293 0.0492557
0.727716 -0.436586 -0.0940048
-0.619155 -0.454694 0.121424
-0.741031 -0.0890189 -0.231198
0.0107245 0.874928 -0.0769733
-0.761095 -0.0380898 0.122953
0.109244 0.808068 0.0699713
-0.76204 0.141568 -0.0707275
0.759555 -0.34193 -0.30912
-0.083183 0.970217 0.0190125
-0.331753 0.739223 -0.112025
-0.634833 -0.494139 0.263562
-0.65405 -0.620392 0.00382356
-0.75932 -0.319833 -0.332172
-0.680708 0.409315 0.00728375
-0.668328 0.520665 0.0738356
0.78773 -0.165205 0.267965
-0.671833 -0.528327 0.186988
0.48979 0.641902 -0.0907239
0.608751 -0.311319 0.356581
0.426389 0.702164 -0.116024
-0.764583 -0.0189206 -0.200865
0.269968 0.826562 0.00207118
-0.765538 0.0658684 -0.0852874
0.687576 -0.0729463 -0.227064
0.658653 -0.367818 -0.0894658
-0.61515 -0.59586 0.0371674
-0.8025 -0.0900253 -0.165051
0.514444 -0.493685 0.163171
0.635421 -0.487781 0.0705558
0.820129 0.131811 0.121829
0.625029 -0.0497859 0.265224
0.00752286 0.875282 0.0977875
-0.643815 -0.443778 0.172473
0.692856 -0.180142 -0.0507747
0.655963 -0.0988823 -0.107711
-0.7985 0.241405 0.0926195
0.693653 -0.398973 0.287289
0.642194 -0.446153 0.184741
0.724211 -0.512877 0.213815
-0.402058 0.708277 -0.0616951
0.13537 0.921131 0.0946869
0.622142 0.596406 -0.105913
-0.472935 0.65079 -0.0453373
0.720813 -0.0344939 -0.213223
-0.206502 0.846778 -0.0608858
-0.659902 0.0466219 -0.0751763
-0.767679 0.332716 0.0511428
0.539086 -0.45065 -0.226345
-0.711496 -0.0777636 0.153016
-0.701205 -0.134079 0.177776
-0.658891 -0.158114 0.269942
0.35099 0.790803 0.00571067
0.404218 0.767181 0.0837219
-0.672546 0.421515 0.0592311
-0.748738 -0.307652 -0.0686155
0.583209 -0.478848 0.28275
0.681476 -0.240782 -0.0235429
-0.679321 -0.242225 -0.290965
-0.57701 -0.162548 -0.272271
0.108272 0.853035 -0.117282
-0.422077 0.75695 -0.0126681
0.778972 0.0549172 0.0395488
0.794077 -0.138333 0.0762181
0.717358 -0.483715 0.133423
-0.120621 0.845901 0.0257982
-0.521793 -0.54485 0.118728
0.690727 -0.203117 -0.334824
-0.445922 0.700057 0.128075
-0.632643 0.524993 -0.120159
-0.756658 -0.264869 -0.0674466
0.571492 -0.272165 0.258932
0.695912 0.0503951 0.0331227
0.658906 0.448875 0.0638602
-0.643607 -0.199017 -0.355226
-0.764398 0.0971616 0.00045352
0.804143 -0.0794962 0.179484
0.68065 -0.0553521 0.0386047
-0.512996 -0.553846 -0.153277
0.768491 -0.20579 0.122234
0.677398 -0.490015 0.227567
0.656316 -0.629916 -0.0206226
-0.785064 -0.00133635 0.110145
0.26025 0.773527 -0.0648403
-0.519091 0.612415 -0.0672673
0.77076 -0.0173961 0.222893
0.622152 -0.569182 -0.156962
-0.650679 -0.354212 -0.271193
0.540199 -0.491518 -4.07922e-05
-0.68141 -0.238896 0.0915863
-0.421779 0.757227 0.0715444
0.672471 -0.280661 0.199436
-0.608033 -0.0486913 -0.121327
0.779271 0.313335 0.0829136
-0.708109 -0.602758 -0.0283068
0.163691 0.800462 0.100888
0.463451 0.663444 0.00171159
0.622911 0.501553 0.0361332
0.540889 -0.481612 -0.0473145
0.802998 -0.102115 -0.229491
0.553842 -0.357324 -0.201585
-0.759753 -0.249248 -0.0119944
-0.815677 0.133064 0.0842162
-0.779598 -0.222142 0.230802
-0.740475 -0.422223 -0.305794
0.739456 0.268547 -0.0612008
0.677425 -0.273591 -0.290201
-0.671131 -0.297833 0.240958
-0.65788 -0.357552 -0.315906
-0.595109 -0.592139 -0.121506
-0.811638 0.20025 -0.0766592
0.0519268 0.816112 -0.0288456
-0.627553 -0.447538 0.238486
-0.620369 0.0272535 -0.000850117
-0.637125 0.473106 0.0441769
-0.678113 -0.251468 -0.158085
0.824826 0.0262501 -0.114451
-0.607387 -0.477164 -0.151794
-0.706412 0.0151988 0.0521315
0.784938 -0.120382 0.0231018
-0.633485 0.571164 0.127402
0.607796 -0.000896522 -0.00768035
-0.175141 0.851205 0.0389643
-0.7028 -0.0281976 0.140478
0.812613 -0.0460335 -0.136291
0.647154 -0.244783 -0.306289
0.221818 0.790202 0.104618
-0.659756 -0.268655 0.283288
0.751224 -0.360673 0.347594
0.616238 -0.0131166 0.209277
-0.718191 -0.0357867 -0.118496
-0.565444 -0.611531 -0.0248466
-0.754894 -0.0349645 -0.153411
-0.78134 -0.00148098 -0.0513592
-0.785957 0.0348574 0.0455251
-0.706479 -0.111297 0.26491
0.691114 -0.204062 -0.235602
0.672976 -0.28866 -0.0644807
0.785089 -0.052202 -0.246252
-0.672586 0.513954 -0.0111405
-0.734745 -0.190919 0.310116
-0.65861 -0.168372 -0.223065
-0.568079 -0.229745 -0.285078
0.7835 -0.192628 0.0199566
0.545153 0.652765 0.131985
0.768373 -0.0091879 -0.123933
-0.695038 -0.162726 -0.0448429
0.71797 0.0280143 0.0616581
-0.77839 -0.221894 -0.0887922
-0.726965 -0.495978 -0.267507
-0.57001 -0.27299 0.205412
-0.739301 -0.360999 0.0431437
-0.766662 -0.292383 0.249316
-0.532039 -0.483952 -0.267328
0.711758 -0.519981 -0.0172972
0.603044 -0.405818 0.328092
0.721228 0.322331 -0.0138815
-0.695695 0.479653 -0.114541
0.699816 0.386301 -0.0372935
-0.607033 -0.121706 0.135221
0.671792 0.0234843 0.170586
-0.806128 0.0336321 -0.0459217
0.758616 0.266547 -0.114721
0.287662 0.818905 -0.085961
0.719796 -0.475343 0.0099356
0.229306 0.844463 -0.0895114
-0.763062 0.130936 0.0665111
-0.162238 0.853028 0.0793632
-0.709327 -0.314892 -0.31968
0.722329 -0.0198686 0.036358
-0.0637196 0.919209 0.0173949
0.681464 -0.0360234 -0.20136
0.127814 0.805535 -0.0328001
0.731086 -0.412108 0.0569844
0.634466 -0.496719 -0.02206
-0.793007 -0.139684 -0.247241
0.761576 -0.307097 0.276548
0.696243 0.394596 0.0303371
-0.660413 0.0439195 0.0219338
-0.595597 -0.0710186 0.130368
0.667674 -0.32175 -0.166309
0.745382 -0.345322 -0.216864
-0.406933 0.730736 -0.119305
-0.121222 0.80567 0.0154622
-0.792602 -0.15233 0.248417
0.613457 -0.527042 0.213321
0.753066 0.391437 0.0781052
0.498991 0.701913 0.102011
0.76821 -0.0157863 -0.212144
0.617878 -0.455151 -0.245983
0.68675 -0.199021 0.303959
0.707044 -0.0476749 0.0821498
-0.204755 0.793978 -0.0726146
0.636157 -0.384293 -0.278967
-0.719152 -0.0371636 0.194402
-0.727802 -0.493124 -0.187654
0.284798 0.772528 -0.116563
-0.0921084 0.902849 0.0817447
-0.712243 -0.505989 -0.0105561
0.8154 -0.0202708 0.127356
0.67537 -0.126665 0.193414
0.805087 0.037852 0.0998093
0.656018 -0.375804 -0.2152
-0.547413 -0.398758 0.253855
0.516977 -0.572784 0.0264272
0.567644 -0.44822 0.145421
0.586158 0.629716 0.0566249
0.551899 -0.293541 0.2863
0.341424 0.795141 -0.0630433
-0.772105 -0.122553 0.284142
0.692036 -0.190181 -0.190306
0.570542 -0.199347 0.274391
0.563841 -0.579867 -0.098723
0.628978 -0.360501 0.233768
-0.754675 -0.27728 0.0157772
0.510854 0.623811 0.0945968
0.603044 -0.196065 0.235655
-0.363816 0.782569 -0.0615604
0.79592 -0.122737 0.216646
0.791195 -0.165967 -0.220188
-0.69051 -0.188868 0.0397737
0.658742 -0.134087 -0.144919
-0.545801 -0.444825 -0.306154
0.672089 -0.533611 0.24617
-0.539695 -0.439464 0.1354
0.67073 -0.588218 0.173552
0.627264 -0.598712 -0.0366199
0.624001 -0.548961 0.0888899
0.695069 -0.176871 -0.269125
-0.63636 0.566191 -0.112879
-0.773037 -0.173935 -0.180823
0.612632 0.607843 0.0288542
-0.621531 0.588987 0.0857893
-0.750692 -0.367653 -0.27308
0.766997 0.162585 0.0189224
-0.556232 -0.313577 0.267291
-0.643112 -0.264604 0.189055
-0.677029 -0.166652 -0.328892
-0.710103 -0.589935 -0.121282
0.743792 -0.148555 -0.262205
0.768631 0.13017 -0.0594029
0.726598 -0.439703 -0.0228693
-0.750333 0.21996 0.0994953
0.580906 -0.405497 0.193773
-0.672041 -0.60597 -0.177902
-0.799225 -0.113779 0.109247
0.608818 -0.0387238 -0.181812
0.50176 0.631822 -0.045473
-0.52809 -0.434105 0.202087
0.818231 0.195948 -0.0771981
0.563375 -0.268752 -0.273214
0.793184 0.0429111 -0.0809733
-0.817071 0.0252287 0.126637
0.820517 0.000792462 -0.0396304
-0.239166 0.837828 0.0860142
0.549355 -0.594661 -0.0258798
-0.301612 0.752903 0.120301
-0.764898 -0.230778 -0.348934
0.750769 -0.314614 -0.181273
-0.470941 0.720578 -0.0885227
-0.632626 -0.49966 -0.0466855
0.726716 -0.432438 0.139129
0.641443 -0.569362 0.126907
0.650817 -0.406577 0.00454274
0.554657 0.655989 0.014114
0.639651 -0.471987 -0.107576
-0.65178 0.451092 -0.0678508
0.785495 0.0243521 -0.140335
-0.524068 0.676457 -0.0962069
-0.0209898 0.986092 0.01717
0.669034 -0.311454 -0.0961167
0.751257 0.39633 0.120166
-0.817536 0.0918738 0.0120476
-0.641882 -0.447477 -0.153861
0.125613 0.848376 0.0364928
0.730277 -0.494081 -0.13301
0.752392 -0.291831 0.163081
-0.522135 -0.582231 -0.11481
-0.688768 0.39703 -0.0865901
0.634247 -0.337392 0.342696
0.695187 -0.415521 -0.320174
-0.403018 0.707932 -0.0119489
0.626445 -0.54736 -0.195159
0.69362 -0.170843 0.0773414
0.782764 -0.190825 0.301938
-0.756152 -0.271947 0.138321
0.54954 -0.32658 -0.25515
0.758543 -0.331208 0.0910474
-0.345965 0.733174 0.0252137
-0.682325 -0.237842 0.276997
-0.61283 -0.584063 -0.0881176
-0.711845 -0.0619595 0.0716345
0.617884 -0.417336 -0.150626
0.664663 -0.263773 -0.213763
-0.248479 0.833627 0.0338419
-0.728847 0.283619 0.0741507
-0.772162 -0.197568 -0.0331597
-0.602517 -0.0824482 0.206042
-0.555805 -0.524407 -0.256542
0.658653 -0.581424 0.040268
-0.613684 -0.102293 -0.179521
0.714404 -0.283965 0.346201
0.534818 -0.52215 -0.166713
0.636937 0.573835 0.0630063
0.740365 0.328484 -0.114766
-0.63685 0.565839 -0.0514037
0.625389 -0.224071 0.355772
-0.576016 -0.596015 0.0657919
-0.743784 -0.33905 0.154768
-0.778216 0.0928525 0.126817
-0.634311 -0.374703 -0.343272
0.748039 -0.322802 0.352133
-0.487529 0.70212 0.127941
0.668882 -0.319799 -0.279731
0.59714 0.538776 0.101607
0.709562 -0.0761866 0.27138
-0.664626 -0.323791 -0.190979
-0.681871 -0.1029 -0.297436
-0.593176 -0.1967 -0.346777
-0.0959509 0.862288 0.111089
-0.791462 0.0273447 -0.0922969
-0.0197763 0.819704 -0.0267782
-0.813992 -0.0301214 -0.0634475
-0.656313 -0.636731 0.0755435
0.270468 0.768932 -0.0157686
0.607487 0.00346512 0.0579731
0.821258 0.12726 -0.0356313
-0.619071 -0.0473352 -0.0370697
-0.628194 -0.498974 0.0991803
-0.581324 0.578898 -0.119978
0.618889 -0.277203 0.241946
0.620585 0.0231168 0.135355
-0.573275 0.63589 -0.0146007
-0.0808462 0.852206 0.0108787
-0.0225846 0.819252 -0.0790852
-0.725011 0.409528 0.127042
-0.702458 0.47096 0.0862836
0.615575 0.580403 0.132255
0.701152 0.380668 0.101248
-0.672203 -0.0651879 0.209277
0.766357 -0.214515 0.195571
-0.465824 0.725314 0.0581979
-0.790058 -0.154721 -0.288359
0.0614475 0.867842 -0.0487529
-0.658341 -0.0452806 -0.265395
-0.632367 -0.244621 0.297668
-0.73042 -0.410465 0.11365
-0.699189 -0.146616 0.25381
0.564347 -0.378461 0.330293
-0.706052 -0.00271924 0.0999896
0.468467 0.659013 0.0829581
0.776591 -0.171097 -0.107665
0.512511 -0.508467 0.127312
-0.463751 0.65878 0.0727123
0.763425 -0.295577 0.312274
-0.749204 -0.387511 0.282974
0.534458 -0.584968 0.0860587
-0.786884 0.276312 0.117515
-0.68491 -0.459022 0.248463
-0.285901 0.816987 -0.0393163
0.642762 0.47211 0.118324
0.675723 -0.618682 -0.0974649
-0.609741 0.00444285 -0.121417
-0.692296 -0.175663 -0.133235
-0.646073 0.470367 0.127312
-0.582576 0.627977 -0.0734685
-0.675316 -0.240731 -0.332622
-0.812639 0.180525 -0.115799
-0.765719 0.336728 -0.102678
-0.568168 -0.239101 -0.337969
0.630747 -0.114395 -0.268856
-0.721388 -0.454545 -0.103172
0.381508 0.719956 -0.0315867
0.692917 -0.468435 -0.293661
0.712044 -0.072869 0.0189224
-0.0832781 0.966756 0.0763528
-0.580526 -0.177017 0.250934
-0.819317 0.0531975 0.0111937
-0.633485 -0.288701 -0.364482
-0.565624 -0.607021 -0.0967458
0.774631 -0.23756 0.240014
0.775428 -0.255469 -0.305794
0.747584 -0.406283 -0.293077
-0.307796 0.750111 0.0808462
-0.736964 0.0277667 -0.0118597
0.745764 -0.330875 -0.0241274
0.517623 -0.539985 -0.100206
-0.694959 -0.213693 0.307644
0.817535 -0.0121132 0.0420649
-0.517097 -0.502643 0.145961
0.656923 0.0080863 0.200919
-0.675423 -0.270233 0.0390099
-0.546548 -0.56998 -0.188283
0.774428 0.084146 0.132974
-0.685224 -0.630291 0.114954
0.657878 -0.365601 0.0679039
-0.695279 0.480738 -0.0318561
-0.809358 -0.059793 0.156026
-0.603321 -0.0174278 0.0559057
-0.747501 0.391636 -0.047899
-0.763837 -0.240925 -0.12281
0.609037 -0.430577 0.179978
-0.736762 -0.373169 -0.0361256
-0.51499 0.684437 0.0364482
-0.730718 0.0173267 -0.108969
-0.681253 0.453901 0.127177
-0.20335 0.811024 -0.118496
0.709932 -0.598803 0.0143388
0.666096 -0.332735 -0.224727
-0.645826 -0.606992 -0.0339235
0.747679 -0.393093 0.022967
-0.666031 -0.322538 0.104663
0.708494 -0.608343 -0.027228
-0.64145 -0.428296 -0.247196
0.723846 -0.518613 0.123761
0.775344 -0.00201987 0.0659266
-0.695397 -0.157438 -0.203292
0.761784 -0.0335915 0.16025
-0.783025 -0.00141362 0.0164062
-0.752215 -0.294495 0.199076
0.528712 0.677356 0.0661069
0.736204 0.0559128 -0.0452927
0.530413 0.676347 -0.0591334
0.793583 -0.00115903 0.105023
-0.662161 -0.3406 -0.0283513
-0.654588 -0.366581 0.205906
0.655311 -0.630832 0.0259329
-0.737082 -0.165998 -0.279011
0.748494 -0.399808 -0.25569
0.658951 -0.369294 -0.164646
0.166421 0.842764 0.0523563
-0.76647 -0.168875 0.312318
0.586574 -0.12072 -0.206348
-0.593749 0.536347 0.03847
0.744961 -0.395049 0.337303
0.710634 0.465966 0.129828
-0.710951 -0.457889 0.304409
0.755661 -0.364241 -0.337565
-0.718961 -0.276573 0.326384
-0.68832 -0.459167 -0.321522
0.0919493 0.863514 0.0911822
-0.588895 -0.16124 0.178674
-0.504014 0.625252 0.0349207
-0.621773 -0.244055 -0.250522
0.576923 0.602199 -0.115439
0.0195607 0.939086 0.0614778
-0.30373 0.809339 0.0857447
0.556061 -0.409229 -0.262924
0.714718 -0.577793 -0.114406
0.752392 -0.292442 0.0357746
0.0977067 0.809655 0.110684
0.615339 -0.576329 0.0169451
-0.691061 0.487104 0.00463289
-0.625458 -0.542616 0.158498
-0.147274 0.840024 0.129289
-0.804802 -0.0450152 -0.233625
0.576576 -0.197463 -0.223154
0.705994 -0.00208921 -0.131033
-0.535106 -0.397797 -0.300896
0.736653 0.332186 0.132749
0.704175 -0.109307 0.178001
0.707488 -0.105129 -0.165545
0.664882 0.439935 0.102236
0.724553 -0.455437 -0.137324
0.743922 -0.150566 0.325126
0.78914 -0.179705 -0.279551
-0.805224 -0.0784263 -0.014151
-0.769257 -0.28013 0.331731
-0.78271 -0.0656118 0.237677
0.720155 -0.0366247 -0.177319
-0.748519 -0.385483 0.0164508
-0.706271 -0.0993202 -0.169364
0.663489 -0.409957 -0.300042
0.72962 -0.0382018 0.223387
0.807682 -0.0635593 0.0937884
0.754959 0.387595 -0.0791308
0.817596 -0.0172158 -0.0924317
0.722363 -0.00338393 0.110774
0.775411 -0.1655 0.187752
-0.808094 0.211973 0.0203162
-0.443457 0.67504 -0.119394
-0.593647 -0.231377 0.186853
-0.0577541 0.914581 0.0525356
-0.641602 0.0320629 -0.122136
-0.810908 0.107817 -0.120877
0.702972 -0.235725 -0.318781
-0.67613 -0.290217 -0.348485
0.160484 0.853867 -0.0295202
-0.722163 -0.458123 0.169103
0.61662 -0.0548677 -0.0765691
-0.61533 -0.516856 -0.0916233
-0.650589 -0.152664 0.140523
0.619535 0.543785 0.132299
-0.385279 0.71592 0.0885759
-0.776476 -0.161371 0.0954507
0.733131 -0.208355 -0.30557
-0.659357 -0.566865 -0.149727
0.803222 -0.0973509 -0.138223
-0.541178 -0.450969 -0.186665
-0.80441 -0.0760201 -0.262789
0.677066 -0.591367 -0.163118
0.789521 0.269164 0.132928
0.794864 0.268231 -0.02934
-0.0887324 0.850881 0.0705102
-0.591098 -0.533082 -0.249623
0.801908 -0.0896717 0.22815
-0.765618 -0.222139 0.195256
-0.777015 0.145475 -0.120742
0.59105 -0.257893 -0.302963
0.592971 0.623943 0.0929791
-0.100798 0.890636 0.00247535
-0.647079 0.551738 0.088351
0.742961 -0.354431 -0.114227
-0.650432 -0.44388 -0.31294
-0.817346 0.0968773 0.0933387
-0.693976 -0.0620407 -0.255015
-0.647938 -0.423818 0.283783
-0.620649 -0.58167 -0.193631
0.736574 0.0599594 0.00418315
0.719195 -0.54635 0.0599949
0.701714 -0.134534 -0.114856
-0.813543 -0.0305662 -0.157231
0.537126 -0.454422 0.272638
0.669707 -0.299105 0.1172
-0.72928 0.28283 0.117695
-0.613482 -0.0954697 -0.301255
0.660006 -0.432074 0.286929
0.763436 -0.254761 0.0598156
-0.76073 0.17848 0.0407623
-0.547272 0.617113 -0.119844
-0.655341 -0.380832 0.139085
0.715611 -0.0336083 -0.0105115
0.624512 -0.533809 -0.131078
0.618524 0.0333507 0.000138508
0.742456 -0.431218 -0.220503
0.270401 0.826301 0.0414359
0.252606 0.834424 -0.113822
0.665287 0.0188433 -0.134493
0.591685 0.547115 0.0365829
0.749803 -0.371414 0.272998
-0.629149 -0.360861 0.177776
0.150918 0.861249 0.0926195
0.773884 0.0181528 -0.0563924
-0.82025 -5.45063e-05 0.0919905
-0.372814 0.778671 -0.0202175
0.625579 0.590187 0.100169
-0.721157 -0.531283 -0.081108
-0.81343 0.038386 -0.120877
-0.58748 -0.126405 0.175978
-0.775728 0.307704 -0.0356313
0.761694 -0.328837 -0.273709
-0.739571 0.251156 0.0270563
-0.645005 -0.43413 0.016856
-0.762191 0.141455 -0.0327556
0.576727 -0.289043 -0.208326
-0.739436 0.416625 0.0319994
0.702911 -0.472843 0.299331
-0.803415 -0.0896994 0.0485366
0.186631 0.841245 0.130591
0.696726 -0.146075 0.272594
0.499081 0.702515 -0.109642
-0.446518 0.672954 0.0335725
-0.685314 -0.0814576 0.0577036
0.790095 0.281894 0.0160912
0.759605 -0.332707 -0.0895559
0.401263 0.768764 -0.0838045
