ply
format ascii 1.0
comment Created by Open3D
element vertex 1651
property double x
property double y
property double z
end_header
-0.633507 0.161679 -0.074219
0.600455 -0.447739 -0.197694
0.598816 -0.319704 0.227406
0.387952 -0.195084 0.00579658
0.302219 -0.499067 0.220694
-0.279946 -0.614661 0.00543912
-0.594336 -0.471721 -0.0334974
0.279481 -0.628029 -0.158993
0.0958211 0.985165 0.121375
-0.453737 0.759418 0.0620175
0.324326 -0.453291 -0.134328
0.211771 0.942643 -0.123496
-0.59018 -0.495288 0.236633
-0.553339 0.629699 0.0512808
-0.586926 -0.454021 -0.221601
0.495107 0.784633 -0.0502499
0.36274 -0.511468 0.0775446
0.579505 -0.566553 -0.179347
0.643367 -0.204379 0.000472124
-0.446897 -0.210987 0.0423357
-0.238935 0.902424 0.0376545
0.682327 0.288334 0.123269
-0.613317 -0.364071 0.296227
0.314136 -0.431494 0.320315
-0.0143604 0.976577 0.0475542
0.451194 -0.0767861 -0.145784
-0.361916 -0.149785 0.107787
0.621933 -0.325933 -0.221143
-0.637102 0.277946 -0.0838833
-0.613888 -0.360831 -0.110836
-0.572802 -0.593844 -0.0926764
0.554408 -0.386687 0.236326
0.424512 -0.52771 -0.0639426
0.686628 0.392086 -0.0737567
0.372861 -0.227971 -0.101167
-0.490247 -0.0857236 0.151659
0.636845 -0.241367 -0.0615805
-0.582492 -0.53889 -0.172833
0.644098 -0.18462 0.202891
0.366629 -0.133788 0.13798
-0.141886 0.961236 0.061385
0.610581 -0.390313 0.0430945
0.373827 -0.0929649 -0.0675097
-0.380055 -0.385321 0.167188
0.362806 -0.573554 -0.252485
-0.631926 0.407053 0.121937
0.631778 0.0446105 0.0586601
-0.397734 -0.699804 0.0364323
0.610549 -0.0947062 0.0694771
0.687712 0.199561 -0.0734859
0.61936 -0.340526 -0.0527168
0.666029 0.490896 0.121167
-0.354985 -0.189093 -0.145613
-0.50544 -0.128117 -0.207807
-0.676269 0.386685 -0.124377
-0.294366 -0.532885 0.140817
0.626778 0.595134 0.0620999
-0.336134 0.904784 0.0513793
0.579222 -0.245964 -0.133746
-0.368802 -0.110734 -0.0313601
-0.579503 -0.555842 -0.0233814
-0.564161 0.698753 0.0371418
0.446407 -0.473638 0.0421313
-0.515767 0.759838 0.110308
-0.433834 -0.534209 -0.0284212
0.632349 0.0630529 -0.0488971
0.632181 -0.267814 0.0826475
-0.343503 -0.254211 0.215634
0.518841 -0.527939 -0.232191
-0.38012 -0.454258 0.142767
0.583872 -0.541789 0.0684796
-0.585567 -0.19925 0.0381982
-0.629966 -0.269648 0.135416
-0.567809 -0.622162 0.121225
0.538507 -0.414417 -0.269151
-0.469272 -0.300641 -0.146784
-0.681503 0.0599353 -0.0754209
0.397217 -0.687194 0.0948814
-0.399762 -0.372062 0.330791
0.626767 -0.00272634 0.112004
-0.399267 0.862441 0.123269
-0.472875 -0.654292 0.11281
-0.313348 -0.575104 -0.244561
0.311125 0.868927 -0.0913129
0.631283 -0.272906 -0.177821
-0.452857 -0.042976 -0.0213705
-0.623429 0.598482 -0.104495
-0.581763 -0.220821 0.114487
0.469894 -0.340434 -0.161277
0.633266 0.092704 -0.11806
0.457769 -0.409203 0.000976208
0.565415 -0.646468 -0.0620825
-0.414811 -0.313746 -0.323377
-0.337381 -0.505879 0.0803497
0.44112 0.83399 -0.119606
-0.52658 -0.490989 -0.247348
-0.18854 0.965403 -0.0510365
0.449009 -0.600656 -0.208453
0.198519 0.917912 0.0638551
0.348081 -0.55041 0.270759
0.592128 0.560212 -0.124377
0.39364 -0.0329125 0.03626
-0.478513 -0.280826 -0.0298596
0.688316 0.21906 0.0678888
-0.630295 -0.267785 0.21612
-0.39828 -0.295518 -0.150494
-0.617291 -0.341533 -0.26757
-0.669287 -0.0466491 -0.0678629
0.483606 -0.313752 -0.301929
-0.61382 -0.0654254 0.0897411
0.634307 -0.25576 0.19534
0.607637 -0.11122 -0.0194622
0.62241 -0.32323 0.159594
-0.601135 -0.137369 -0.150548
0.519163 -0.58657 0.135234
0.450164 -0.452327 0.313705
-0.433217 -0.537713 0.0409326
0.525112 -0.552831 -0.142746
0.605292 -0.33416 -0.290594
0.354124 -0.204707 -0.228189
-0.367959 -0.115517 0.209853
0.472345 0.806119 0.0837819
-0.413414 -0.668679 -0.0971789
0.56011 0.620521 0.0778464
0.418877 -0.243846 -0.30366
-0.617318 -0.0455917 -0.126667
0.564596 0.612085 -0.0439119
0.335467 -0.317479 -0.326194
-0.525001 -0.542735 0.183276
-0.665525 0.306804 -0.0245737
-0.362173 -0.35146 -0.165666
-0.094589 0.985065 -0.124126
-0.655726 -0.123562 -0.0640367
0.421211 -0.136693 0.236533
0.591147 -0.500528 0.183485
-0.318388 0.866791 0.123269
-0.439958 0.833428 -0.0563738
0.637078 0.215995 -0.000462198
0.61526 -0.0679919 -0.0816454
-0.0763713 0.987842 -0.0248712
0.650322 -0.164928 0.0756149
0.129166 0.964148 -0.0126886
-0.341436 -0.28387 0.322913
-0.297116 -0.517284 0.270664
0.638538 0.263179 0.0500939
-0.390809 -0.0331298 0.0386359
0.652711 0.532497 -0.0620108
-0.421003 -0.552267 0.278007
0.562939 -0.104404 -0.0690155
0.291731 -0.558555 -0.0287712
0.384333 -0.474525 0.128426
-0.575875 0.587317 0.00780543
-0.573394 -0.294698 0.234438
0.337347 -0.313037 -0.160491
-0.439092 -0.636448 0.168995
0.673193 0.463866 -0.0926989
-0.635148 -0.240258 -0.0762418
-0.312594 -0.429508 0.262997
-0.374072 -0.0808455 -0.175275
-0.625386 0.000165454 -0.0693858
-0.446279 -0.463637 0.0773476
-0.338232 -0.284108 -0.26589
-0.597843 -0.451829 0.0545889
0.63627 0.387349 0.0826015
-0.142488 0.97727 -0.00478063
-0.523177 0.751274 -0.0544656
-0.455463 -0.411553 0.0351726
0.325283 0.861342 0.0293708
-0.297816 -0.656442 -0.129614
0.509675 -0.0959562 -0.162906
0.492825 -0.659262 -0.0100323
-0.544409 -0.432671 0.228971
-0.544202 -0.505818 0.279348
-0.322399 -0.373902 -0.276701
0.516492 -0.0761674 0.0758076
0.684024 0.0802913 0.0644159
0.48531 -0.253006 -0.0201686
0.586298 -0.23075 0.11804
-0.687315 0.24787 -0.0597397
0.564958 -0.477821 -0.287226
-0.689716 0.335843 0.0610222
-0.520817 0.754001 0.0362289
-0.390545 -0.499195 0.303524
0.345423 -0.254048 0.257868
-0.617831 -0.338471 0.00308887
0.400162 -0.700655 0.0236043
-0.668671 0.47627 -0.121068
-0.279568 -0.61681 0.140306
0.569312 -0.624365 -0.00340322
-0.638844 0.334223 -0.122361
-0.402801 -0.639764 -0.190928
-0.571276 -0.239391 -0.215547
-0.54837 -0.410205 -0.199003
-0.418546 -0.567027 -0.265738
-0.511071 -0.648149 0.061111
-0.42938 -0.21269 0.290689
-0.370956 0.883202 -0.0127133
0.576895 -0.581357 0.158189
0.538873 -0.303603 0.278136
0.446596 -0.604617 0.21307
-0.59228 -0.48338 -0.143187
0.428663 -0.209648 0.0504599
-0.540081 -0.642087 -0.0615442
-0.667136 -0.0588509 -0.0031956
0.209868 0.960113 -0.0501942
-0.524684 -0.544534 -0.202509
0.416438 -0.398029 -0.327031
-0.268773 -0.678029 -0.0131157
-0.318224 -0.500473 -0.294257
-0.684318 0.150986 0.12172
0.289744 -0.569823 0.0693476
-0.403569 0.804984 0.095713
-0.351811 -0.417582 0.325523
-0.536768 -0.0857204 0.0503219
0.558015 -0.477155 0.289633
-0.612676 0.490622 -0.0891907
-0.383306 -0.269008 0.139644
-0.440124 -0.688075 -0.0309127
0.418065 -0.0469049 -0.0830303
0.684805 0.105579 -0.0510697
0.533068 0.712738 -0.00689436
0.679573 0.000958504 -0.0490245
-0.514963 -0.290052 -0.294123
-0.495583 -0.184019 0.264988
-0.475575 -0.29749 0.315283
0.688583 0.249324 -0.124377
-0.656805 0.513803 0.0469046
0.691252 0.313964 0.0376331
0.486211 -0.234634 -0.0818295
-0.120913 0.947241 0.123269
-0.629763 0.0406185 0.0130004
-0.52673 -0.635574 -0.175575
0.513585 0.736565 0.088902
-0.283977 -0.591801 -0.0856877
-0.638036 0.349057 -0.0620279
0.594394 -0.482116 -0.0427785
0.602462 0.528912 0.065225
0.511034 -0.659083 0.133362
-0.349615 -0.68333 0.079456
0.36549 -0.140244 -0.230305
-0.623705 0.448986 -0.0401639
0.633621 0.104197 0.0103869
0.378306 -0.526369 -0.286411
-0.374958 -0.469414 -0.128897
-0.608418 0.627392 0.0782445
0.691789 0.344537 0.101016
0.337228 -0.441562 -0.317044
0.29668 0.925277 0.0847505
0.381416 -0.39341 -0.163357
0.463842 0.814146 0.00139146
0.632949 0.0824553 0.1162
-0.424476 -0.198677 -0.280779
0.676068 0.450313 -0.0158823
-0.583696 0.569925 0.0687814
-0.676496 -0.00576476 0.0863377
0.611584 -0.384623 -0.223
-0.288059 -0.568648 -0.146404
0.522533 -0.36834 0.295223
-0.302026 -0.489443 -0.162456
-0.225505 0.907999 -0.108713
0.659343 -0.113769 -0.124987
-0.556139 -0.0949684 -0.0571893
-0.63095 0.0790017 0.068622
-0.58875 -0.207608 0.188526
-0.323712 -0.680773 -0.0695142
-0.621546 -0.0216065 -0.00882293
-0.638894 0.562969 0.105404
0.0342564 0.990837 -0.0262476
0.585348 0.67129 0.0612052
0.373639 0.829703 0.0172942
0.27375 -0.677423 0.037586
0.61952 -0.0438344 0.0223286
-0.622161 -0.24998 -0.25577
-0.469788 -0.330309 0.121386
0.477275 -0.298577 -0.0828784
0.404114 -0.636447 -0.19516
0.639098 0.357743 0.0257566
-0.357713 -0.218172 -0.0908485
-0.450246 -0.510351 -0.279529
0.35656 -0.19089 0.149866
-0.685673 0.383449 -0.0601197
-0.495089 -0.62983 -0.124666
0.453461 -0.433631 -0.0921231
-0.0486253 0.990016 -0.0764526
-0.601478 0.526707 0.00958738
0.295182 -0.640197 0.162821
-0.616218 -0.347622 0.240269
-0.444156 -0.594547 -0.22128
0.370911 0.884403 -0.0890708
0.589244 -0.511329 -0.163778
-0.470963 -0.329198 -0.304891
-0.627701 -0.282492 -0.117455
0.452662 -0.438159 0.133032
0.653932 -0.144457 0.155683
-0.631469 0.0957777 -0.0827275
-0.0307811 0.9519 0.123269
-0.625043 -0.160238 0.0587543
0.117105 0.981919 -0.0709516
-0.529828 -0.422902 -0.273435
-0.637919 0.304334 0.0577504
0.388182 -0.270248 -0.137547
-0.554605 -0.401251 0.296925
0.59294 -0.194567 -0.156409
-0.594524 0.550995 -0.124377
-0.624037 0.597085 -0.0225745
-0.68314 0.112877 -0.0523936
-0.683005 0.108528 0.0826282
-0.460188 -0.384749 -0.110721
-0.379259 0.878058 -0.073487
-0.674856 0.447105 0.0355686
-0.595993 0.649522 -0.0798892
0.612645 -0.378606 0.133521
0.410279 -0.643393 0.189471
-0.335749 -0.298189 -0.180037
-0.552536 -0.558114 -0.251021
-0.3229 -0.371059 0.25864
-0.592164 -0.245306 0.258717
-0.685081 0.175634 -0.0953403
0.261071 0.941245 0.00428433
0.299562 -0.51414 -0.237071
0.447992 -0.498148 -0.284597
-0.538049 0.654227 -0.0674123
0.332692 0.857132 -0.036646
-0.349101 -0.222464 0.148888
0.636394 0.193868 0.0523168
-0.614435 -0.357733 -0.0525477
-0.346621 -0.62903 -0.192181
-0.568764 0.600689 -0.0611771
0.499131 -0.12197 0.205348
-0.222834 0.954639 0.100265
-0.622436 -0.0165635 0.122529
-0.411706 0.798286 0.01464
-0.59737 -0.158722 -0.0945515
0.0127756 0.94906 -0.0898467
0.310294 -0.453276 -0.268316
0.470208 -0.0677083 0.120681
-0.684887 0.169357 0.0679263
-0.640953 -0.207336 0.148679
0.372228 -0.102027 -0.164097
0.639505 0.294466 -0.00312175
0.601897 0.642375 -0.0788393
0.561544 -0.111956 0.0980954
-0.479931 0.797174 -0.0970623
-0.624073 0.447107 0.082548
-0.271718 0.888813 -0.0820339
-0.570969 -0.604239 0.188485
-0.441454 -0.491004 -0.0700173
-0.140202 0.933514 -0.120491
-0.319485 -0.390421 -0.192521
-0.404038 -0.42609 -0.155849
0.393162 -0.227588 0.0987075
-0.616459 -0.346252 -0.206157
0.57455 -0.590733 -0.230222
0.464618 0.7504 0.0643859
0.564912 -0.586665 0.234665
-0.18141 0.922538 0.0505038
-0.524257 -0.546956 0.127076
0.589214 -0.215707 0.223339
-0.635953 0.370863 0.0721495
0.639637 0.352094 -0.0986965
-0.272667 -0.655947 0.0442975
0.399229 -0.320946 0.327535
-0.611362 -0.375159 0.0451505
0.340309 0.85203 0.0863013
0.619453 0.47437 0.0160281
-0.660563 -0.0961232 0.0913732
0.592515 -0.49277 0.128112
-0.444724 -0.472455 0.132507
0.480924 0.733039 -0.00073511
0.572879 -0.604133 -0.138851
0.469012 0.745992 -0.0929301
0.535234 0.661301 -0.070791
-0.346778 -0.387628 -0.326951
0.31012 -0.454266 0.258361
0.299796 -0.512814 -0.0934577
-0.349723 -0.604252 0.224908
-0.482031 -0.26088 0.0218138
-0.244409 0.900152 0.123021
0.624599 -0.173482 -0.0898456
0.627268 0.446285 0.123269
0.55274 -0.109726 -0.131206
-0.389551 -0.658856 0.159566
-0.580327 -0.551168 0.0705559
0.439564 -0.664141 -0.105345
0.380583 -0.692732 -0.0569774
0.575384 -0.294141 -0.237326
-0.425085 -0.120379 -0.216333
-0.612514 -0.0868431 0.140245
0.563077 -0.659721 0.15072
0.174796 0.969432 0.0621566
-0.591452 -0.488072 0.166944
-0.506978 -0.671357 -0.0162451
0.305409 -0.500981 0.0782777
-0.633853 0.17288 -0.0170403
0.290021 -0.568253 -0.188866
0.353792 -0.528216 0.0125594
0.372664 -0.0995565 0.0948247
0.0588442 0.974104 0.0827727
0.290726 -0.564252 0.25054
0.651818 -0.156444 -0.0238952
0.571359 -0.475419 0.236
-0.674826 0.447246 -0.0755194
-0.506733 -0.0800353 -0.132374
-0.362235 0.84943 -0.124377
0.632303 -0.267127 0.142255
-0.681877 0.0720536 -0.0134132
0.678277 0.439896 0.0869755
-0.485515 -0.241115 -0.0723515
-0.316389 -0.521945 0.0127403
0.635603 0.168304 -0.0881707
-0.0544817 0.946699 0.0748561
0.604883 -0.422632 -0.0938419
0.564851 -0.412727 0.300341
-0.421405 0.790305 -0.0975011
0.27365 -0.676518 -0.0405567
0.548055 -0.449127 -0.228805
-0.29181 0.878262 0.03559
0.522769 -0.0771949 -0.0452861
0.691054 0.307572 -0.0615827
0.42488 0.846482 0.0245162
0.601885 -0.14384 0.0489231
-0.355049 0.840889 0.0167141
-0.629482 -0.135062 -0.00265298
0.655273 0.524492 0.074748
-0.546503 -0.134451 -0.168457
0.326804 -0.359643 -0.219547
-0.354391 -0.192461 0.250058
0.625868 0.597223 -0.00777731
0.63556 0.166926 0.101748
0.513903 -0.689976 0.0318441
-0.551525 0.714665 0.123269
-0.55339 -0.381736 -0.244237
0.638118 0.368004 -0.0474694
-0.140675 0.977737 -0.0850231
-0.606486 -0.107024 -0.105376
-0.257878 0.941724 -0.0220608
0.599332 0.536521 -0.0634374
-0.36467 -0.549116 -0.271117
0.44284 -0.493866 -0.111094
-0.634334 0.188403 0.0947027
0.111312 0.982803 0.0610939
-0.35821 -0.170805 -0.0373813
-0.554799 0.712078 -0.035609
-0.37086 -0.0990632 0.143826
-0.531635 0.663868 0.120051
0.495617 -0.239958 0.277227
-0.253111 0.943482 -0.0801878
0.46757 -0.280923 0.137976
0.640857 0.35332 0.123269
-0.419934 0.848832 -0.00555227
0.0823371 0.944137 0.0241041
-0.635136 0.214373 -0.080999
-0.688372 0.282039 0.104727
-0.47243 -0.315327 0.0626447
-0.649317 -0.159906 -0.167291
-0.631895 0.109556 0.118459
0.28026 -0.62361 -0.0569731
0.619412 -0.340235 0.000529917
-0.528601 -0.54873 0.238275
-0.615457 -0.0561443 0.0350153
0.62177 -0.0310685 -0.0384761
-0.686338 0.216262 0.0169892
0.0229408 0.94906 0.0202556
-0.63701 0.274953 0.00643551
0.6108 -0.389071 0.243461
0.164913 0.928129 0.00180993
0.218253 0.957023 0.0932803
0.10105 0.941695 -0.111243
0.630117 0.42593 -0.0772007
-0.360596 -0.157273 0.0536707
-0.642804 -0.196844 0.0107861
0.677384 0.109799 0.123267
0.647513 -0.166732 -0.178069
-0.316465 -0.422106 0.154022
0.662616 -0.0952071 0.0764197
0.682259 0.0232559 0.0202374
0.597049 -0.467057 0.0169239
0.327257 -0.675785 -0.0889188
-0.284693 0.930203 0.0341997
0.580032 0.583056 0.0416604
0.337632 -0.298236 0.181399
-0.608636 0.627003 0.0176613
0.322252 -0.38546 0.185655
0.566014 -0.505734 -0.227803
0.618211 -0.347044 -0.159415
-0.538641 -0.661044 0.140515
0.523428 -0.575431 0.0838654
0.381475 0.824453 -0.0611813
-0.68575 0.197282 -0.0466828
-0.179583 0.923093 -0.0114226
0.53922 0.655311 -0.018484
-0.519954 -0.597774 -0.215913
0.674889 -0.0191642 0.123267
-0.591719 -0.19077 -0.138713
0.569209 0.60341 -0.0950299
0.218966 0.911499 -0.00273325
-0.605362 -0.113397 0.069902
0.292101 0.87912 0.108165
-0.571028 -0.603903 -0.143609
-0.606456 -0.402983 -0.225667
-0.469931 0.743173 -0.00230944
-0.563932 -0.348358 0.296972
0.332973 -0.472855 0.121795
0.467674 -0.448027 -0.30162
0.192328 0.920317 0.123269
-0.439003 -0.260385 0.125651
0.31629 -0.663438 0.121721
0.639457 0.290804 -0.124377
-0.559653 -0.668416 0.0292841
-0.32292 0.911551 -0.0890066
-0.606724 -0.401467 0.24114
-0.583579 -0.210529 -0.0700023
0.45163 -0.198001 -0.277497
-0.611419 -0.237504 -0.172077
0.426872 -0.256614 0.310507
-0.683229 0.115758 0.0242155
0.331415 -0.618927 0.20343
0.689366 0.253019 -0.07306
-0.550818 -0.467032 -0.289504
-0.634064 0.390651 -0.0320236
0.59416 -0.187648 0.144992
-0.652902 -0.13957 -0.116128
0.44845 -0.368971 0.168355
0.436104 -0.66412 0.119913
0.637141 0.218018 -0.0517386
0.431262 0.783749 -0.123025
0.322854 0.912505 0.0425594
-0.52111 -0.601988 -0.090384
0.55662 -0.133654 0.149531
0.686428 0.158018 0.0730324
-0.631942 0.111059 0.0286837
0.328981 -0.347298 -0.279916
0.365439 -0.140537 0.00420192
-0.322773 -0.475399 -0.115293
-0.0123847 0.991846 -0.00546451
-0.685718 0.383038 0.122488
0.271582 0.937371 -0.0755911
0.577335 0.682694 0.00995982
-0.553877 -0.685907 -0.0846871
0.634758 0.042257 -0.124377
-0.688299 0.279669 -0.0998792
-0.371053 -0.0979661 0.0903382
-0.516757 -0.615903 0.132374
0.63676 -0.241843 0.0392042
-0.644455 0.550201 -0.0630371
-0.436179 -0.359594 0.167965
-0.0949903 0.985004 0.0490911
-0.624562 -0.300293 -0.236107
-0.687787 0.363975 -0.013304
0.567418 -0.321431 0.187767
0.602184 -0.43794 0.2123
-0.632164 0.405836 0.0164048
-0.616309 0.478536 0.121355
-0.562863 -0.512879 -0.212087
-0.0160182 0.991662 0.0957216
0.417982 -0.529676 0.0584996
0.684942 0.407627 -0.124003
0.449276 -0.457369 -0.14529
0.511941 -0.203241 -0.251256
-0.520624 -0.593972 0.213828
-0.473027 -0.211533 -0.283525
-0.514224 0.690003 -0.112602
0.512686 -0.649714 -0.140833
0.177015 0.96886 -0.0907446
0.560667 -0.3776 -0.295214
-0.571772 -0.353893 -0.295156
-0.444235 -0.682905 0.0684871
-0.598227 -0.449649 -0.29426
0.568561 -0.628621 -0.187386
-0.56303 -0.649262 -0.0169771
0.586598 -0.204128 -0.101432
0.635561 0.166935 0.0099427
-0.571472 -0.295662 -0.17417
0.509141 -0.637021 0.0879891
0.247451 0.899673 -0.0994703
0.335907 -0.308012 0.28222
0.641451 0.56144 -0.115905
0.615816 0.617584 -0.120036
-0.644495 0.178175 -0.124377
-0.234075 0.950496 0.0517571
-0.591946 -0.485274 0.285523
0.365474 -0.416289 0.159411
0.685612 0.401452 -0.0192364
0.553037 0.717277 -0.0713272
0.347066 -0.244735 -0.257701
0.688875 0.237133 0.114226
0.437076 0.798335 0.123269
0.638047 -0.234551 -0.236649
0.149203 0.932097 0.101636
0.576959 -0.580994 -0.0538405
0.461249 -0.389464 0.125015
-0.412324 -0.0451593 0.0816661
-0.179018 0.923266 -0.0914253
0.287255 -0.583938 0.142965
0.4953 -0.608684 0.172542
0.401989 -0.214254 0.294065
-0.511669 -0.618346 0.0105966
0.363077 -0.153937 0.207512
0.313062 -0.655914 -0.135985
-0.374817 -0.0766202 -0.0760877
-0.671252 -0.0355079 -0.115884
-0.412034 -0.374021 -0.328248
0.537527 -0.508834 0.22315
0.353325 -0.217931 0.300216
0.584263 -0.243788 -0.182599
0.276773 -0.666559 0.0926617
-0.539699 -0.184805 -0.229189
-0.495189 0.713281 -0.0680266
-0.466531 0.746584 0.107636
0.38743 -0.507643 -0.0889969
-0.663662 0.246566 0.0655803
-0.388731 -0.201693 0.0458761
0.563078 -0.659718 0.0441166
-0.463591 0.812597 0.071914
0.409254 -0.588242 -0.247303
0.325665 0.911134 -0.0698653
0.317138 -0.414465 -0.207568
0.426477 0.823324 0.0821744
-0.334656 -0.522196 -0.0326893
0.405632 -0.328627 0.163982
-0.643893 -0.190664 -0.0700269
-0.326793 -0.348975 0.197677
-0.37354 0.828502 -0.078987
0.328323 0.907332 -0.124377
0.597763 -0.167222 0.0916718
0.477323 -0.572298 -0.236436
-0.384035 0.875097 0.0554762
-0.33968 -0.275895 0.274741
-0.597932 -0.451329 0.216468
0.446453 0.768622 -0.00147786
-0.424814 -0.201756 -0.000210691
-0.362419 -0.400082 -0.161408
0.375954 -0.0808979 0.164133
-0.454979 -0.657373 -0.123109
0.346608 -0.691219 0.0234834
-0.356699 -0.179374 -0.226099
-0.516176 -0.0672288 -0.0810236
-0.346888 -0.235013 -0.281483
-0.362657 -0.474814 -0.308329
0.303771 -0.490268 0.172972
0.675939 -0.0196501 -0.0986933
-0.411213 -0.157387 -0.253487
0.675433 0.453303 0.036565
0.614031 0.492407 0.108713
-0.362815 -0.144683 0.251375
0.426529 0.845214 -0.0747103
-0.397588 -0.239843 -0.109897
0.573928 -0.275982 0.220998
-0.291886 -0.546944 -0.199338
0.431225 -0.173553 0.266385
-0.515698 -0.0699397 0.0909943
-0.509927 -0.124411 0.173093
0.390366 -0.571554 0.26051
0.347476 -0.242407 0.125331
0.419689 -0.0449742 0.0774354
0.5061 0.702251 -0.110775
0.684512 0.0960795 -0.124161
0.375602 -0.0828971 -0.00743697
0.570572 0.600845 0.121791
-0.462412 -0.154364 0.24643
-0.420763 -0.475119 -0.312087
-0.590065 -0.150275 0.0968239
0.294092 -0.545163 0.170685
0.527037 0.749 -0.0449447
0.629876 0.588019 0.115723
-0.629883 0.0445013 -0.0513983
-0.668936 -0.048644 0.0660555
-0.445135 -0.0726795 0.14182
-0.616811 -0.344256 0.0937491
-0.609707 0.5005 -0.042344
0.424113 -0.0366659 -0.0042926
0.596307 -0.287513 0.278979
0.587299 -0.141516 -0.087002
0.606746 -0.412063 0.095301
0.46892 -0.345956 0.0784329
-0.600467 -0.436945 0.135247
0.669099 -0.0584464 -0.0679528
0.45928 -0.402462 0.310606
0.68544 0.126076 0.0375336
0.47059 -0.0623132 -0.104113
0.639217 0.28516 0.10172
0.465146 -0.114973 -0.201575
-0.66801 0.0658676 -0.124377
0.623975 -0.31435 0.0402991
0.525766 -0.575533 0.18904
-0.363376 0.8879 0.105368
0.557783 -0.685297 -0.088236
-0.621424 -0.31809 -0.148159
0.523678 -0.578884 -0.07495
-0.515459 -0.374642 0.29456
-0.125124 0.93652 0.0120233
0.639072 -0.219017 0.235076
0.484547 -0.257333 0.0585371
0.365727 -0.138902 0.0654808
0.54051 -0.200611 0.234733
0.0137292 0.94906 0.0738137
0.345031 -0.4724 0.310494
0.583259 0.674263 0.119103
0.59592 -0.473466 -0.251886
0.0884738 0.986286 -0.0215695
-0.657042 0.0325317 0.0668657
-0.558291 -0.453778 0.29539
-0.487189 -0.231622 0.0718787
-0.652866 0.510888 0.123269
-0.58542 -0.124779 -0.035427
-0.371288 -0.0966337 -0.130168
0.559775 -0.541119 0.19374
0.37283 -0.362564 0.331019
-0.299711 -0.627316 0.184793
0.440207 -0.508801 -0.0239016
-0.338077 -0.50571 -0.0783598
-0.466762 -0.347472 -0.146495
0.461588 -0.387538 -0.0404122
-0.57165 -0.600381 -0.0355972
-0.318488 -0.396076 0.300623
0.366348 -0.135373 -0.112017
0.478741 -0.29026 0.00738589
0.632822 0.412135 0.0338904
-0.499938 -0.0511623 0.0217453
-0.467814 -0.341509 -0.0232102
-0.439654 -0.481885 0.313341
0.650542 -0.163687 -0.12746
0.584477 -0.538358 0.122071
0.0105848 0.992032 -0.0717639
-0.499631 -0.398352 -0.306441
-0.632151 0.117855 -0.123823
-0.504551 0.701832 0.12136
-0.494356 0.714301 0.0249475
-0.560571 -0.525872 0.213214
-0.392342 -0.525128 0.0594254
-0.270113 0.88948 0.0811748
-0.526614 0.671414 0.035286
-0.304742 -0.474037 -0.258325
0.356219 -0.486303 -0.303431
0.467028 -0.356688 0.021756
0.609798 -0.394758 0.289501
-0.433144 -0.420044 -0.324823
-0.678437 0.0149883 -0.0857969
-0.473725 -0.409851 0.310374
0.321136 -0.391787 0.29793
-0.319946 0.913002 0.118607
0.599996 -0.450346 -0.151665
0.365831 -0.438245 -0.14757
0.269951 0.890333 -0.00262837
-0.596241 -0.165126 0.00786001
0.468263 0.746744 -0.0428053
-0.56929 -0.61376 0.0707314
0.52269 0.754023 -0.0921456
0.466159 -0.493664 0.287493
-0.538503 -0.259784 0.267086
-0.626188 -0.291073 0.0195449
-0.414296 -0.238604 -0.301857
0.327666 -0.354758 0.251118
0.258066 0.942352 0.0500607
0.420145 0.828535 -0.0324667
-0.449619 -0.0429043 0.0332933
0.507947 0.771061 0.122168
-0.477084 -0.28893 -0.0926026
0.689616 0.261115 0.0497664
0.616175 -0.358593 -0.0946853
-0.647715 0.542195 -0.0133501
0.688287 0.218119 0.0221071
-0.630044 -0.226062 0.241697
0.281949 -0.614033 0.060486
0.662688 0.501334 -0.0300341
0.388038 -0.212233 -0.291732
-0.622704 -0.310831 0.202675
-0.60844 -0.149555 0.172132
-0.0185686 0.991533 -0.116668
0.447442 -0.303573 0.323268
-0.593749 0.548926 0.123269
-0.583164 0.671705 -0.123797
-0.287782 -0.570227 0.0123893
0.208884 0.914762 -0.0550264
0.475547 -0.308374 -0.127369
-0.449566 -0.444992 -0.05464
-0.279223 -0.618764 0.0947969
-0.434747 0.778466 0.120588
0.381955 -0.202149 0.0531195
0.686083 0.146876 -0.0186082
0.629042 -0.285617 -0.0542076
0.567322 -0.15768 -0.163896
0.380227 0.878629 0.102666
-0.370777 -0.331557 0.165775
0.382997 -0.655894 -0.159858
0.372268 -0.344148 -0.327559
0.448283 -0.286715 -0.316227
-0.656928 -0.0962623 0.140821
-0.413362 -0.650319 -0.139813
0.640728 0.563102 0.0186523
-0.552261 -0.326134 -0.260071
0.57746 -0.578156 0.0422961
-0.0680844 0.945357 -0.0784262
-0.364882 -0.302552 -0.323004
-0.619442 -0.192001 -0.178304
0.596104 -0.150221 0.0045551
0.57101 -0.109768 0.0536653
0.533931 -0.279084 -0.276622
-0.662472 0.496099 0.00316806
0.0984892 0.942206 0.107885
-0.4141 -0.119704 0.220421
-0.329586 0.882672 -0.124377
0.342994 -0.267831 -0.216528
-0.435915 -0.335534 0.328749
0.314722 -0.428166 0.21675
0.641137 -0.0796918 0.038759
-0.418011 0.793099 -0.0295642
0.605522 0.635918 -0.0239947
-0.668449 0.477319 0.070421
-0.221468 0.909675 0.0784008
0.634329 0.12709 0.122459
-0.534135 0.66011 -0.0230614
0.582165 -0.414136 -0.239497
0.0572474 0.989676 -0.0823946
-0.687391 0.25033 -0.0120722
0.559708 0.707783 0.0571061
-0.473136 -0.607955 0.200482
-0.389727 0.816376 0.0491468
0.51609 -0.380176 -0.292542
-0.638332 0.317682 0.100403
-0.462107 -0.37387 -0.0670195
0.683149 0.0520144 -0.0507518
-0.321344 0.86244 -0.0239401
0.590155 -0.196278 -0.00564217
-0.179879 0.967635 0.103673
-0.579836 -0.553952 -0.215912
0.632246 0.0597469 0.00745867
0.397592 0.81146 -0.113997
-0.6354 0.222858 0.122862
-0.517083 -0.587642 0.0423389
0.644459 -0.198178 -0.0435684
0.687616 0.196435 -0.0291222
0.481774 -0.649567 -0.108861
-0.520871 -0.592569 -0.165954
0.404052 -0.665339 0.151331
-0.477934 -0.545154 0.260893
-0.308124 -0.454859 -0.205479
0.69081 0.353552 -0.0954013
0.626273 0.445537 -0.120695
0.358802 0.891908 -0.000479322
-0.602871 -0.423312 -0.0543371
0.649432 -0.169985 0.0315766
-0.319778 -0.578517 0.245053
0.540704 -0.520892 -0.270087
0.606849 0.633554 0.0716026
0.386979 -0.529045 -0.0405481
0.68963 0.364424 0.0317596
-0.101626 0.983991 -0.0652921
0.42616 -0.149112 -0.245052
0.468577 -0.20934 -0.00398972
0.371723 0.830986 0.0634559
-0.652917 -0.139485 0.0950387
-0.316395 -0.665813 0.116532
-0.10136 0.941256 0.060944
0.626991 -0.00146453 0.067891
-0.363736 -0.139466 0.0134413
-0.689675 0.324172 0.0185079
0.626681 -0.299011 0.199129
-0.304144 -0.605496 -0.211768
-0.636908 -0.0929499 -0.0132837
-0.384512 -0.573633 0.258294
-0.294316 -0.53317 0.229741
0.492251 -0.0945317 0.168108
-0.600639 -0.435968 -0.155364
-0.591078 -0.207559 0.23242
-0.304731 -0.474101 0.267667
0.481038 -0.337828 0.308566
0.302345 -0.498359 -0.186291
0.379211 -0.420921 -0.32315
-0.235373 0.950017 -0.119766
0.594209 -0.237204 0.163597
-0.561203 -0.337428 0.192978
-0.574505 -0.288393 -0.219679
0.64792 -0.0412294 0.0901831
0.311623 -0.518474 -0.0285079
0.170201 0.970616 -0.0352772
-0.311562 -0.685559 -0.0174277
-0.388137 -0.255783 0.312649
0.559628 -0.357088 -0.249434
0.456893 -0.685031 0.0230885
0.290592 -0.565013 -0.137595
0.405563 -0.216706 -0.0746643
-0.613526 -0.362886 0.199357
-0.574824 -0.298578 0.284467
-0.342525 -0.25976 0.170355
-0.508017 -0.10241 -0.17278
-0.541627 0.729955 0.0659067
0.568301 -0.334306 0.254725
0.563781 -0.333529 -0.205373
-0.495513 0.782465 0.0571832
0.353781 -0.206651 -0.158084
-0.432005 -0.0701238 -0.138802
-0.451596 -0.433482 0.114682
0.552664 -0.42299 0.260016
0.567765 -0.0956769 -0.0264338
0.533011 -0.534444 0.261367
0.633996 0.116323 -0.0787001
0.370828 -0.282127 -0.31862
0.476879 -0.300821 0.0943731
0.680604 0.00680631 0.0832094
0.524953 -0.160226 0.21203
0.0582545 0.949251 -0.124377
-0.532486 -0.524155 -0.153556
0.493521 0.717634 0.037678
-0.333035 -0.384023 0.166096
0.518609 -0.0533809 -0.00528685
-0.614191 -0.242685 0.165197
-0.0731852 0.944852 -0.0263107
0.444106 -0.57301 0.242311
-0.686551 0.375365 0.0282567
0.416659 -0.244864 -0.11202
0.576777 -0.582026 -0.00353379
-0.432121 -0.400321 0.329626
0.379518 -0.521103 0.291714
0.338173 -0.591152 0.235475
-0.629586 0.0349087 0.100392
-0.447109 -0.211603 -0.0419127
-0.577334 0.584574 -0.103992
0.549585 -0.530398 -0.169879
0.652578 0.454383 -0.0537999
0.576248 -0.293916 -0.280183
0.518297 -0.69107 -0.0232894
-0.636563 0.364475 0.122503
-0.255165 0.895686 -0.00139438
-0.49167 -0.502877 -0.269078
-0.594281 -0.47203 -0.0813736
0.228965 0.907348 0.092833
-0.525139 -0.168573 0.215199
0.674882 -0.0256456 0.00821212
-0.353064 0.842218 0.118491
0.589383 -0.510536 -0.0743335
0.289911 -0.56888 0.0266021
0.422591 -0.284807 0.145532
-0.660337 0.404967 -0.0892131
-0.541552 -0.475282 0.229738
-0.531382 0.741793 -0.100557
0.30885 -0.607411 -0.210041
0.519612 -0.610436 -0.162176
-0.497753 -0.178354 -0.233444
-0.565709 0.606438 0.087699
0.48264 -0.517455 -0.268982
-0.506881 -0.676046 0.0930256
0.690892 0.302363 0.0839767
0.542826 -0.566198 -0.244543
-0.59639 -0.199396 -0.22261
-0.434346 0.837746 0.0901114
-0.421673 -0.329527 -0.160832
-0.680221 0.0185137 0.0231431
0.564427 -0.605971 -0.0972014
-0.566047 0.661819 0.0118424
-0.539581 -0.644918 0.0990607
-0.539879 -0.458354 -0.210661
0.291101 0.879655 -0.0554427
-0.418289 -0.502771 -0.103554
-0.488717 -0.052956 -0.0520158
0.640144 -0.222655 -0.189422
-0.638266 -0.0852453 -0.0876838
-0.578719 -0.560288 0.0291985
-0.457166 0.818662 0.0236975
-0.50398 -0.327501 0.306273
0.634089 -0.119665 0.0957804
-0.29146 -0.54936 -0.0700847
0.340769 -0.483558 -0.109891
0.607462 -0.167725 0.190417
0.379049 -0.0633502 0.0616022
0.624748 -0.0773447 -0.135984
-0.57494 -0.581722 0.111531
0.686448 0.158684 -0.0631142
-0.633975 0.157446 0.123267
0.640335 0.406255 0.123269
0.134354 0.97929 0.10549
0.634138 -0.256716 -0.139081
0.357251 -0.186969 0.234976
0.583777 0.574327 -0.0535034
-0.567995 -0.483777 -0.248209
0.31418 -0.431235 -0.169148
-0.644801 0.244362 -0.124377
0.442538 -0.365163 -0.328005
-0.0794504 0.944836 -0.124377
-0.578418 -0.42466 -0.251741
0.63848 0.261316 -0.0947099
0.356788 -0.189593 -0.105348
0.460285 0.793722 -0.0795456
-0.408515 -0.0400639 -0.0597868
0.609524 -0.100521 0.021314
0.421348 -0.0617855 0.127589
-0.470321 0.806244 -0.0349647
0.541343 -0.645654 -0.0280809
-0.411443 0.855364 -0.0871433
0.66818 0.342653 -0.0612167
-0.526338 -0.691424 0.0390694
0.529985 -0.45988 0.264125
-0.513475 0.762485 -0.00388055
-0.0485332 0.990021 0.0151237
0.663699 0.185002 -0.124377
-0.489679 -0.217502 0.032833
-0.460921 -0.380597 0.135572
-0.354848 -0.189871 0.0788417
0.526946 -0.568842 -0.200962
-0.359835 -0.633455 0.191559
0.466938 -0.673255 -0.0614296
0.606113 0.518753 -0.0191615
0.540337 -0.182264 -0.22946
-0.590692 -0.355051 -0.238782
0.41525 -0.0812147 -0.16595
0.640259 0.042287 0.123267
-0.321721 0.862237 0.0621127
0.566057 -0.359644 0.20363
0.533643 0.741366 0.0530628
-0.295296 -0.527608 0.0883797
0.492281 -0.537798 0.254114
0.493953 -0.65691 0.0464947
0.49565 -0.194369 0.271192
0.359746 -0.308953 0.326749
0.319472 -0.550444 -0.264821
0.666078 0.490742 0.0536246
0.0984656 0.984762 -0.123543
0.150643 0.931809 -0.105666
-0.636986 0.274142 -0.042816
0.112611 0.939391 -0.048667
-0.597788 -0.452138 0.00259013
-0.354737 -0.190501 0.123507
-0.630284 0.0574459 -0.097668
0.660561 0.085163 -0.0875543
0.512966 0.76526 -0.0098996
0.495198 -0.135848 -0.2203
0.498858 0.711107 0.117613
-0.366959 -0.343389 0.330105
-0.580243 -0.255854 0.203748
0.355722 -0.19564 -0.268193
-0.622429 0.600778 0.106165
0.446991 -0.47032 0.0970048
0.483264 0.795813 0.0446785
0.302277 -0.684381 -0.00253847
-0.660606 0.147774 0.0359999
-0.564939 -0.638435 -0.0938162
-0.55518 -0.397992 0.249785
0.423676 -0.420629 0.326972
-0.285678 -0.582159 0.111634
-0.397641 0.86598 -0.0391226
0.619353 0.474701 -0.0887786
0.549201 0.640307 0.0300258
-0.645379 -0.182241 -0.02723
0.639886 0.306785 0.0370648
-0.537282 -0.524236 -0.268274
0.523145 0.679471 0.0889683
0.499718 -0.465185 0.290733
-0.68624 0.213138 0.0607289
-0.278918 -0.620495 -0.129486
-0.589691 -0.498065 0.07164
0.331023 -0.516984 0.0511642
0.681864 0.0139534 -0.120668
-0.298179 -0.51246 0.047734
0.614896 -0.0700532 -0.0296145
0.47742 -0.618575 -0.171671
-0.610101 -0.38231 0.131595
-0.461827 -0.375463 0.0537263
-0.311153 -0.437683 0.191007
-0.585657 0.667931 0.0521477
-0.668915 0.307235 -0.124377
-0.0698824 0.945179 0.115472
-0.266587 0.890944 -0.0398867
-0.577972 -0.564526 -0.137715
-0.581918 -0.25468 -0.262269
0.578405 -0.440614 -0.29539
-0.58527 -0.523135 0.111548
0.569097 0.694419 -0.112456
0.359845 -0.172263 0.0374511
0.450998 0.803038 -0.037483
0.497864 0.747361 -0.124377
0.479165 0.799277 0.123269
-0.486665 0.790817 0.0967779
-0.486328 -0.575026 -0.216219
0.536833 -0.615078 -0.0602363
-0.029637 0.94906 -0.00248924
0.664936 0.226608 -0.0927096
0.612307 -0.380525 -0.180923
-0.622691 -0.173582 0.0998292
0.317111 -0.414619 -0.295005
-0.622013 0.461197 -0.124377
0.608327 -0.107304 -0.0877951
-0.46081 -0.328576 0.161312
0.401658 0.808114 -0.00160522
-0.381782 -0.529742 -0.0358423
0.494261 -0.276797 -0.290618
-0.516413 -0.480323 0.265755
0.280141 0.933346 -0.0300608
-0.683042 0.109686 0.122672
0.55981 -0.540921 -0.209728
-0.628362 0.587155 0.0651715
-0.574757 -0.530316 0.271093
0.421918 -0.248405 0.117148
0.405677 -0.439839 -0.150296
0.590503 -0.504184 0.0301542
-0.657617 0.511267 -0.0801674
0.435922 -0.361006 -0.165504
-0.377454 -0.0616678 0.0631723
-0.34116 -0.669792 -0.114972
0.593539 -0.238836 -0.252084
-0.675867 0.426533 -0.124377
0.0356916 0.94874 -0.0546785
-0.351688 -0.207796 0.196058
-0.611481 -0.237153 -0.219719
-0.627572 0.535604 0.0640081
-0.564836 -0.639015 -0.164922
-0.476626 -0.111487 0.19702
0.62669 -0.298952 0.119207
-0.475898 -0.295657 0.1397
-0.28345 -0.594788 0.0468329
-0.579259 -0.557222 -0.0630157
-0.629451 -0.272568 0.0753591
-0.0541617 0.989736 0.0700679
0.550731 0.720561 0.0935276
0.539431 -0.490641 0.178581
0.330092 0.889982 0.0816393
0.690549 0.291271 -0.0255444
-0.472914 -0.312577 0.00327402
0.494609 -0.0504806 0.0328587
0.627278 -0.0306201 -0.1257
-0.378738 -0.0543805 0.00761171
0.594551 0.548139 0.0303265
-0.611821 -0.199073 -0.105773
-0.609631 0.500752 0.0437399
0.635539 0.131562 -0.124377
-0.6369 0.384431 -0.124377
0.650281 0.338194 -0.00660539
0.552637 -0.61727 0.0649778
0.64172 -0.213717 0.0663744
0.349601 -0.599873 -0.226317
0.663958 0.194986 0.0872806
-0.373764 -0.4842 0.118034
-0.623697 -0.305208 0.119771
0.0245204 0.991328 0.0742653
-0.659765 0.120565 -0.0131424
-0.577539 -0.244778 0.151114
-0.665416 0.24824 0.123269
0.635061 -0.251486 -0.01699
-0.680199 0.42191 0.120886
-0.68857 0.288465 -0.0505806
-0.393004 -0.198398 0.286702
0.648426 0.545424 -0.0251655
-0.369531 -0.670719 0.127982
0.368167 -0.194661 -0.0309919
-0.293037 0.926132 -0.0462985
0.331021 -0.335729 0.190544
-0.560529 -0.0875377 -0.0166828
0.60719 -0.272212 -0.228466
-0.295638 -0.525664 -0.260993
0.625775 -0.166815 0.135206
-0.646085 0.34056 -0.0212784
-0.458483 0.754658 -0.118406
-0.294699 -0.530998 -0.154453
-0.141773 0.933201 -0.0408628
-0.373113 -0.148995 -0.252152
0.0815462 0.944215 0.0631177
-0.346282 -0.692618 0.000156402
0.385399 0.870914 -0.124377
0.543573 -0.633005 -0.123208
0.452628 0.824731 0.0533368
-0.543358 0.666994 -0.124377
0.624575 -0.31095 -0.266006
0.667662 0.34808 0.0601949
-0.442833 -0.428468 -0.157535
-0.487519 0.764504 -0.0462793
-0.425313 -0.277333 -0.314731
-0.510692 -0.219792 0.264323
-0.459902 -0.386371 -0.151587
-0.397143 -0.701131 -0.00837129
-0.430801 -0.571816 0.241658
0.342773 -0.269077 0.206385
-0.595438 -0.465467 -0.179832
0.304208 0.872634 -0.00482451
0.660646 0.413231 -0.0545961
-0.259868 0.893733 -0.12327
0.201448 0.917022 -0.0966256
0.357926 -0.362982 -0.165961
0.617233 -0.0568046 0.0683234
-0.596243 -0.323575 0.26274
-0.606903 0.585839 -0.0721117
0.659737 0.058498 0.0848104
-0.539449 -0.581623 0.133988
-0.28366 -0.593598 0.175534
-0.66121 0.167265 -0.0434752
0.547843 -0.608784 0.147949
-0.572179 -0.597376 0.150238
0.666008 0.261279 -0.0366888
-0.519106 -0.459307 -0.267709
-0.460594 -0.382451 0.00366252
0.661573 0.117853 -0.0132569
-0.584915 -0.171567 0.141999
0.558737 -0.684331 -0.0499053
0.523691 -0.59437 0.222384
0.440679 0.774414 0.0822997
0.585389 -0.533189 -0.127024
-0.337726 0.884878 0.0186459
-0.364638 -0.311885 -0.15883
0.603612 -0.429837 0.0105838
-0.667699 -0.0108709 0.123267
-0.688381 0.358506 0.0918687
0.583502 -0.158282 -0.127537
0.435076 -0.290211 -0.144743
0.370021 -0.114547 -0.20236
0.576668 -0.205623 -0.189169
-0.518514 -0.579523 0.175238
-0.576163 0.681671 -0.0444781
-0.624349 -0.164175 -0.126033
0.659182 0.04055 -0.0116387
0.507503 0.771574 0.0749214
0.359882 -0.679832 0.0977379
0.668509 -0.0617887 0.019105
-0.211601 0.94212 -0.0852575
-0.583383 -0.533836 -0.249091
0.409063 0.85865 0.0877429
0.279801 -0.626215 -0.120923
-0.445546 -0.22447 0.0779534
-0.492763 0.759243 -0.0882092
0.41479 -0.652948 -0.139127
0.343028 -0.26763 0.159453
0.576058 0.590529 -0.00331439
-0.455395 -0.411937 -0.0845918
-0.4176 -0.436988 0.155186
0.616275 -0.358027 0.268893
-0.333045 0.906609 -0.0408478
-0.657369 0.0430736 -0.0131745
0.663313 0.393618 0.0164476
0.58343 -0.544298 0.162996
-0.651875 -0.145396 -0.0332972
-0.649801 -0.157164 0.159034
-0.325987 -0.643868 -0.164163
-0.142266 0.933102 0.0866416
-0.313411 -0.424876 -0.280593
-0.604934 0.590624 0.0357302
-0.633997 -0.246792 -0.128099
0.348086 0.852112 0.123269
-0.604815 -0.412287 0.0430785
-0.686443 0.219672 -0.0881333
0.626307 -0.1638 -0.053405
-0.648813 -0.162764 0.0258401
-0.420166 -0.534847 -0.286029
0.579822 -0.242558 0.198042
-0.431719 -0.27193 -0.133335
-0.553209 -0.567631 0.185339
-0.646426 -0.038968 0.0221606
-0.144469 0.97676 -0.0423847
0.685515 0.1285 -0.0856021
0.639206 -0.10144 0.144216
-0.633896 0.174244 0.0355825
0.367948 -0.126303 -0.0305114
-0.570925 0.628481 0.123269
-0.616823 -0.0483947 -0.0735277
-0.555443 0.711162 0.00275709
-0.3779 -0.109156 -0.212803
-0.607898 0.628319 -0.0376446
-0.632903 0.142126 -0.0385896
0.657087 0.0107662 0.0490344
0.602365 -0.436912 0.0625216
-0.518305 -0.677201 -0.09296
-0.555609 -0.369148 -0.208938
-0.388406 0.817463 -0.111631
-0.658487 0.0792318 0.0966056
-0.436481 -0.519204 0.286689
0.662274 -0.0971463 -0.000639858
0.597635 -0.371691 -0.297094
0.562518 -0.367102 0.280898
0.660662 0.0883995 0.0309772
-0.514441 -0.661695 -0.128458
-0.21193 0.94202 -0.0141913
0.563294 -0.658491 0.0943185
-0.485357 -0.624986 0.150616
-0.330855 -0.534144 -0.276879
0.454808 -0.425992 -0.0398065
-0.375853 -0.298444 0.324615
-0.60996 0.503032 -0.124377
-0.309039 -0.449669 0.226381
0.612496 -0.0836709 0.112037
0.602379 0.529114 -0.10634
0.343126 -0.442906 0.145643
0.418587 -0.397341 -0.163767
0.448576 -0.461336 -0.00305326
0.652569 0.192301 0.123269
-0.512489 -0.640104 -0.0865921
-0.513205 -0.636043 -0.0363763
0.414688 -0.678344 -0.0616501
-0.616845 -0.205555 0.118102
0.0630021 0.946045 0.118666
-0.368723 -0.470464 0.312932
-0.319802 0.894481 0.0862499
0.581507 -0.505051 0.281998
0.298017 -0.522906 0.268114
0.438763 -0.106107 0.199003
0.337559 -0.298651 -0.278576
0.383561 -0.528023 0.0446432
0.438672 -0.472243 0.137656
-0.684035 0.141808 -0.0756478
0.598627 -0.289723 -0.193775
0.343039 0.869695 -0.124377
0.49401 -0.389481 0.311593
-0.257359 0.924568 0.0644352
-0.361418 -0.152612 -0.143968
0.384092 -0.154557 0.257864
0.636458 0.385378 -0.0801642
-0.518413 -0.10503 0.137274
-0.32032 -0.385689 -0.229255
-0.376423 -0.678733 -0.107985
-0.552261 -0.573003 -0.164141
-0.610135 -0.0863219 0.0142354
-0.43452 -0.0559388 -0.103222
0.521996 -0.233927 -0.269314
-0.435903 -0.654528 0.136897
0.641668 0.019356 -0.0527286
-0.444407 -0.0550248 0.0971311
-0.635241 0.217769 0.00751325
-0.67176 -0.0326246 -0.0293983
0.465252 -0.0549039 0.0844048
-0.624087 -0.00719781 -0.105538
0.659669 0.477044 -0.124377
0.522663 -0.263368 0.286202
0.47372 -0.0948657 -0.171016
0.640672 -0.082331 -0.0590997
0.435625 -0.432918 -0.322831
0.634766 0.57679 -0.043685
0.419102 -0.201094 -0.0129658
-0.332374 -0.317323 -0.280669
-0.543121 -0.281272 -0.261003
0.249692 0.945438 -0.104031
-0.446509 0.789967 -0.124377
-0.337831 -0.286381 -0.214803
0.643504 0.556727 0.0615434
-0.680382 0.023684 -0.0501536
-0.411574 -0.678115 -0.0617347
0.462016 -0.219731 0.0620079
-0.580445 -0.254709 -0.181599
-0.585362 -0.522612 -0.0377816
-0.440333 0.772865 0.0306401
-0.61574 -0.350325 -0.164652
0.365154 -0.690726 0.0550855
-0.573984 -0.449812 0.244162
-0.292434 -0.543838 0.190631
0.627357 -0.295177 0.235551
-0.593903 -0.321905 -0.287802
-0.176835 0.968419 0.0531077
0.674275 0.372594 -0.124377
-0.283367 -0.595263 -0.049262
-0.510347 -0.531062 -0.233907
-0.424364 -0.252313 0.308922
-0.561543 -0.256274 0.238891
-0.628261 -0.279318 -0.0178226
-0.671391 0.463449 -0.0106637
-0.43406 -0.617469 -0.194693
0.38171 -0.0482566 -0.0859639
-0.563444 0.610695 -0.026483
0.639988 0.310086 -0.0914874
-0.0368237 0.976091 -0.0274762
-0.303233 -0.482595 0.1734
0.656399 0.434893 0.0115545
-0.639329 -0.216554 0.0430699
0.652705 0.532517 0.110156
0.684013 0.0799467 0.101394
-0.349373 0.844691 -0.0388422
-0.608967 -0.181163 0.205259
0.60139 0.601497 0.0877996
0.624654 0.453797 -0.0134539
0.537931 -0.587555 -0.121527
-0.278002 -0.664353 -0.100237
-0.287189 -0.653708 0.134377
0.659118 0.42103 -0.102303
-0.574929 -0.135417 -0.110994
-0.680538 0.0287441 0.104477
0.377934 -0.127268 0.234766
0.599435 -0.453526 0.168069
0.532417 -0.451845 -0.261407
-0.590976 -0.290765 0.202973
-0.38449 -0.0758967 0.168158
-0.395085 0.847187 0.0757755
-0.0452626 0.947608 -0.0503783
-0.326543 -0.350399 -0.172134
0.361287 -0.164079 -0.203357
-0.543831 -0.584696 -0.117265
0.418287 -0.441733 0.153016
0.375093 0.828729 -0.0258034
-0.458943 -0.116351 -0.204173
-0.349322 -0.577482 -0.247724
0.573835 -0.318596 0.290505
-0.542951 -0.440939 -0.242216
0.0599519 0.989539 0.11994
0.666869 0.289121 0.0207147
0.593114 -0.352045 -0.236769
0.440425 -0.507563 0.0122309
-0.514563 -0.0576116 0.0551829
0.343324 -0.265955 0.307062
-0.446148 0.805579 -0.00808661
0.594717 -0.44299 0.298022
0.637638 0.234081 0.0713393
0.556234 -0.694712 0.0493308
-0.586811 -0.19826 -0.0225809
-0.450691 -0.438617 0.321487
-0.332892 -0.314388 0.305771
-0.468974 -0.0818183 -0.148807
0.308853 -0.630272 -0.179694
0.237472 0.933611 -0.0439119
-0.60748 -0.397173 -0.138192
-0.374965 -0.0757854 -0.0372957
0.585138 0.571018 0.107909
0.6207 -0.1956 0.167937
-0.365785 -0.127841 0.17614
-0.569832 -0.108864 0.0667019
-0.540494 0.700227 0.0922379
0.465584 -0.364873 -0.120307
0.664259 0.496426 -0.0655736
0.629965 0.426707 0.0665842
-0.340246 -0.424063 -0.321641
0.476353 -0.0456366 0.00232685
0.450933 -0.0488121 -0.0687405
-0.479403 0.732586 0.0519615
0.526326 -0.621691 -0.00600819
-0.301244 -0.493877 -0.088982
0.618871 -0.326874 0.290593
-0.577327 0.643195 0.0866341
-0.212086 0.915664 0.123269
0.660494 0.0829765 -0.0238641
-0.410807 -0.593822 -0.243233
0.335113 -0.312522 -0.20799
-0.406663 -0.0923709 -0.184658
0.541389 -0.645394 0.120166
-0.65943 0.409789 -0.0485428
0.666721 0.284303 0.0646011
0.341045 0.851537 -0.0821581
-0.489289 -0.477456 0.293488
0.596637 -0.246903 0.259447
-0.565184 -0.637045 0.175467
-0.295233 -0.675746 0.0720853
0.451181 -0.446563 0.0693915
-0.658532 0.080698 0.0121966
-0.380804 -0.422135 0.158349
0.576397 -0.584183 0.193777
0.362359 -0.44282 0.320436
0.343072 -0.267384 -0.14354
-0.379206 -0.194405 -0.0131863
-0.510435 -0.625342 0.0926703
0.651419 -0.15871 0.111753
0.513028 -0.647773 -0.0793648
0.519219 -0.669622 -0.11196
0.305062 -0.482946 -0.139014
0.437212 0.836996 0.121084
-0.356712 -0.514004 -0.290873
0.601126 -0.443931 -0.0655254
0.244528 0.900887 0.0199516
-0.653363 0.440735 0.0633414
-0.632508 0.404085 0.0843374
-0.324785 -0.504079 0.295581
0.393107 -0.613775 -0.220182
0.616542 -0.356508 0.0521745
-0.541461 -0.634252 -0.131057
0.563264 -0.293963 0.249688
0.609434 -0.18453 0.0237948
0.623271 -0.318345 -0.179672
-0.103751 0.940779 -0.0978254
-0.406624 -0.477465 0.129482
-0.642603 0.340668 0.0462689
-0.183 0.922055 -0.05624
0.516881 -0.625922 0.14646
-0.625239 0.441164 -0.00566786
-0.661117 0.164255 0.0985823
0.543157 0.649394 0.0891856
-0.434966 -0.609058 0.20767
-0.684218 0.147725 -0.0251045
-0.407941 0.858057 0.0263784
-0.437511 -0.510873 0.100377
-0.638415 0.320341 0.0159831
-0.477516 -0.286765 -0.295004
-0.357812 -0.17306 -0.106829
-0.553403 -0.364049 0.263022
0.613466 -0.373947 -0.00803737
0.613459 -0.236665 -0.159465
-0.643809 -0.0538122 -0.10268
-0.310398 -0.441958 0.29917
-0.54059 -0.639196 0.0242336
0.287923 0.895637 -0.124377
-0.615793 0.56423 -0.0995859
0.571638 -0.412683 0.219919
-0.332911 -0.314287 0.198427
-0.608118 -0.393552 -0.259561
0.497286 -0.412545 -0.307878
-0.553676 -0.408942 0.204667
0.297062 -0.528319 -0.0590109
0.597963 -0.278508 0.195415
-0.353807 -0.195775 -0.0639918
0.640197 0.31684 -0.0326818
-0.586948 -0.339828 0.222393
0.475761 0.778198 -0.0183984
0.527976 -0.545354 0.13058
0.643253 -0.205021 -0.0981261
-0.582209 -0.403165 0.275243
0.142918 0.977647 0.0466146
0.47795 -0.431028 0.302248
-0.647011 -0.0356513 0.0902205
-0.342338 -0.470656 0.125872
0.108755 0.983193 0.0260852
0.583671 -0.54293 -0.0427186
0.584252 -0.121967 -0.0433136
0.0669192 0.945658 -0.0905659
0.588432 -0.515926 -0.20283
0.308652 -0.462595 0.292373
0.5129 -0.345658 -0.297651
-0.660515 0.144838 -0.106277
0.608131 -0.200607 0.0895217
0.663118 0.16781 -0.0386388
-0.341543 -0.265325 -0.303579
0.617028 0.615426 0.0238045
-0.557047 -0.676422 0.115038
-0.418803 -0.0367055 -0.0163714
0.143465 0.961298 -0.0557991
0.612521 -0.241982 -0.203114
-0.395176 0.863222 -0.124377
0.657115 0.0109214 0.12324
0.308739 -0.462093 0.222546
-0.594515 -0.1485 0.0385332
0.623945 -0.0347448 0.12568
-0.358697 -0.168045 -0.176893
0.590818 -0.206606 -0.227529
-0.301755 0.904151 0.0574229
-0.386172 -0.689764 0.0794988
0.382728 0.877078 0.0201603
-0.343205 -0.602391 -0.223056
0.326936 -0.358898 0.216477
0.659601 0.0541132 0.0373612
-0.690222 0.339928 -0.0532487
0.518041 0.687143 0.0121699
0.464409 -0.123636 0.21482
-0.382014 -0.356323 -0.328082
0.383998 -0.697719 -0.022659
-0.411282 -0.0650819 0.138674
0.499056 0.710864 -0.0280231
-0.626846 -0.085882 -0.138457
0.0106661 0.992028 0.0288988
0.372073 0.883683 -0.0514154
-0.653611 0.00178152 -0.0462001
-0.640383 -0.0732403 0.110843
-0.228741 0.952462 -0.0567794
0.509055 -0.114967 -0.192052
0.578594 -0.109555 0.00819178
0.541274 -0.487584 -0.260099
0.446545 -0.472851 -0.313739
-0.622579 -0.311545 -0.0990658
0.53965 -0.470386 0.222704
-0.0219249 0.94906 -0.0915505
0.322534 -0.47441 -0.30568
0.451015 -0.403543 0.166245
-0.530459 -0.161704 -0.204957
-0.517005 -0.516151 0.241372
0.00927162 0.949593 -0.124377
-0.582804 0.572096 -0.0311129
0.625502 0.54523 0.0888667
0.174684 0.953917 0.0228284
-0.451438 -0.675003 -0.0784476
0.544396 -0.142119 0.189773
0.199811 0.91752 0.0255062
-0.688515 0.357268 -0.105709
-0.350128 -0.216641 0.101254
-0.10991 0.982728 0.080263
0.619116 -0.177738 -0.00960528
-0.542711 -0.122951 0.162113
0.550481 -0.414913 -0.198056
-0.646346 0.474192 0.0968325
0.548773 -0.125207 -0.161865
0.293584 -0.548051 -0.10302
0.534243 -0.501054 -0.215067
-0.238385 0.932445 0.020582
0.380708 -0.0539428 0.0121228
-0.553168 0.630021 0.000210985
0.366088 -0.13685 0.0999116
-0.00458267 0.974395 0.123269
0.616723 -0.355484 0.20722
0.518566 -0.589957 0.0157381
-0.637832 -0.225039 0.20765
0.483031 -0.220055 -0.0507807
-0.654798 -0.128823 -0.153494
-0.470583 -0.602117 -0.200546
-0.637397 -0.0901748 0.0666142
0.43973 -0.57683 -0.236095
0.262281 0.893517 0.0988114
-0.662112 0.196452 0.0316215
0.459332 -0.532386 0.266318
0.613262 0.494967 0.0613775
0.632371 -0.129405 -0.110476
0.30105 -0.677145 -0.0666974
-0.618098 0.558629 -0.00746586
-0.599956 0.642462 -0.117126
0.592485 -0.355605 0.242774
0.468555 0.74645 0.030471
-0.653434 0.000775492 0.010937
0.5331 0.712699 -0.0412598
0.365728 -0.292031 -0.15176
0.399655 -0.182875 0.276238
-0.630299 -0.130433 0.0361872
-0.368873 -0.110333 -0.0733885
0.473376 -0.32069 -0.0569025
0.405763 -0.680927 -0.114774
-0.532749 -0.145449 0.187686
0.608573 -0.4017 0.158513
0.519266 -0.0742314 0.0322701
0.0777061 0.987928 0.0571543
0.542374 0.731278 0.0203219
-0.583445 -0.211289 0.154819
0.423853 -0.538813 -0.0250928
0.446426 -0.473532 -0.0728266
0.662467 0.146791 0.0955236
-0.353369 0.875133 0.0745019
-0.665871 0.317986 0.0777725
0.176673 0.953313 0.0922144
-0.596109 -0.165872 -0.168679
-0.603083 -0.284779 0.248093
0.577091 0.647196 0.0923214
-0.35975 -0.687321 -0.0688025
-0.542967 0.728406 -0.0713722
-0.00866779 0.992033 -0.043578
-0.585485 -0.226127 -0.243946
-0.439599 -0.686389 0.00314345
-0.293825 0.890845 -0.124377
0.669677 0.331186 0.123269
0.661505 -0.101507 -0.0344445
0.631959 -0.131742 -0.0364149
-0.667175 0.481411 0.0335405
0.65784 -0.122297 0.120054
0.476888 -0.255374 0.306705
-0.594139 -0.202863 0.0709583
0.422787 -0.59956 0.241888
-0.0949561 0.970354 0.0122962
-0.45705 -0.197049 0.278617
0.348221 -0.661757 -0.136673
0.4354 -0.20408 0.0176238
-0.317697 -0.400563 -0.311955
-0.62139 -0.180956 0.171698
0.412161 -0.528193 -0.288491
-0.646464 0.473802 -0.0357299
-0.624358 0.445657 0.118641
-0.352499 -0.203193 -0.253278
-0.592265 -0.483463 0.0146742
-0.558914 -0.434682 -0.295832
0.541651 0.659249 0.123269
-0.126427 0.98021 0.117456
-0.549203 -0.519139 0.180358
0.281565 0.913304 0.123269
-0.429822 -0.637475 -0.166529
0.532033 -0.335472 0.287359
0.571394 -0.612558 0.0282642
0.292986 -0.551434 0.0975827
0.359685 -0.209379 -0.0761401
0.404696 -0.272587 -0.314526
0.406244 -0.357241 0.330479
0.369264 -0.118842 0.175176
