ply
format ascii 1.0
comment Created by Open3D
element vertex 1692
property double x
property double y
property double z
end_header
-0.4894 -0.580718 -0.411794
0.126349 0.131676 -0.520634
0.247312 0.00273365 0.466184
-0.340584 0.563009 0.392164
0.398054 -0.135788 0.466186
0.324692 0.689716 0.426939
-0.416492 -0.24143 0.466183
0.489372 0.0633325 -0.388446
0.186199 -0.505161 0.466187
0.339259 0.697117 -0.113012
0.325228 0.339738 -0.520634
-0.4894 -0.197534 0.0582851
0.0596121 -0.704007 -0.0344056
0.0546024 0.331119 -0.520634
0.286395 -0.704007 -0.429318
0.489372 0.559578 -0.16527
-0.4894 -0.519228 0.377475
0.340129 -0.272261 0.466187
-0.4894 -0.476084 0.0866566
-0.0114465 0.697117 -0.357393
0.059288 0.600099 0.540872
-0.4894 -0.696977 -0.022841
0.489372 -0.629971 -0.368016
-0.333119 -0.704007 0.0807921
-0.4894 0.236265 0.131756
0.341479 -0.682582 0.401635
0.36903 -0.413857 0.466187
0.289101 -0.316308 -0.520634
0.0516937 -0.360994 -0.520634
-0.4894 -0.170459 -0.387015
-0.0101013 0.544844 0.392165
0.489372 -0.360397 -0.403304
0.335148 0.418852 0.466181
0.199366 0.195466 0.466182
-0.229841 0.134549 -0.520634
-0.353471 0.342134 -0.520634
-0.118478 0.374076 -0.520634
-0.4894 0.642788 0.317009
-0.0349988 -0.562336 0.450258
-0.4894 -0.402439 -0.22258
-0.0269621 -0.704007 0.235334
0.489372 0.295282 -0.380409
-0.17884 0.0572555 0.466182
0.382602 -0.562326 0.45554
0.429175 -0.11904 -0.520634
-0.4894 0.394844 0.365299
0.489372 0.1461 -0.183132
-0.367177 -0.704007 -0.213399
-0.0131273 0.108693 0.466182
0.198354 0.458017 0.46618
-0.251822 -0.431378 0.466184
-0.4894 0.395819 0.229272
0.150253 -0.704007 -0.473013
-0.4894 0.228857 0.392246
0.464995 0.54409 -0.520634
0.197309 0.397871 -0.520634
-0.161899 0.688684 0.466172
0.489372 0.326203 0.0193922
-0.0653597 0.0727201 -0.520634
-0.4894 0.0350177 -0.0462307
-0.211347 -0.580049 0.342827
0.489372 -0.439365 -0.141452
0.489372 0.0900434 0.145785
0.472871 0.111189 0.466182
0.489372 -0.523393 0.144288
0.489372 -0.138575 -0.17107
-0.305536 -0.463021 -0.520634
0.323002 -0.0430881 -0.520634
-0.419711 -0.00151448 0.466182
-0.476112 0.697117 0.20391
-0.0550865 -0.601605 -0.520634
0.489372 0.146635 -0.480385
-0.4894 0.575248 -0.157224
-0.350118 -0.129191 0.466182
-0.010861 -0.198958 -0.520634
-0.243494 -0.207223 -0.520634
0.489372 0.562271 0.117396
0.414938 0.697117 -0.00143015
0.489372 -0.703531 0.00330453
-0.349997 0.697117 -0.427146
0.489372 -0.695074 -0.246096
-0.352536 0.697117 -0.193243
0.332779 -0.704007 -0.104921
-0.291784 -0.562337 0.449777
0.0353252 -0.704007 -0.394038
-0.4894 -0.225084 0.349622
-0.358102 0.697117 0.13555
0.386847 -0.704007 0.129981
-0.142928 0.624857 -0.520634
0.489372 -0.158569 0.173809
0.37792 0.0307523 0.466185
-0.147895 -0.704007 -0.247111
-0.470038 0.433883 -0.520634
0.0118288 -0.562832 0.342827
-0.0495432 0.302003 0.466181
-0.4894 -0.344132 -0.496455
-0.4894 0.0841318 -0.273035
0.30264 0.697117 -0.263102
-0.4894 -0.568206 -0.157609
0.211847 -0.119821 -0.520634
-0.4894 0.336915 -0.209956
-0.206748 -0.692439 -0.520634
-0.120031 0.697117 0.358536
0.329704 0.697117 0.136548
-0.104817 0.697117 -0.150153
0.401191 -0.704007 -0.443567
0.0559707 0.555981 -0.520634
-0.387109 -0.373566 0.466183
-0.4894 0.64475 -0.0286065
0.391295 -0.264399 -0.520634
-0.151414 -0.254213 0.466183
-0.239161 0.390667 -0.520634
-0.308055 0.305576 0.466181
-0.395942 0.670956 0.392162
0.156389 0.697117 0.023874
-0.131181 0.190291 -0.520634
-0.4894 0.275344 0.0126498
0.37517 -0.521667 -0.520634
-0.4894 0.150735 0.310814
-0.480032 0.139799 -0.520634
-0.4894 -0.209799 -0.130481
0.489372 -0.369716 0.386843
0.487973 -0.330731 -0.520634
-0.0902803 -0.704007 0.114684
-0.4894 0.113632 0.117495
0.34925 0.0645335 -0.520634
0.0576784 0.697117 0.366119
0.411626 0.61717 0.392163
0.227041 0.697117 -0.357144
0.489372 0.686897 -0.0934044
-0.33214 -0.704007 0.337188
0.240792 0.130385 -0.520634
0.489372 0.164542 0.280151
-0.0492663 0.289076 -0.520634
-0.482736 -0.426593 0.466183
0.45977 0.32172 0.392164
-0.482497 -0.587116 -0.520634
0.396381 -0.562378 0.347218
0.297847 -0.438611 -0.520634
0.0735469 0.697117 -0.461647
0.202428 0.697117 -0.0750503
0.159341 -0.307741 -0.520634
0.474897 -0.185526 0.392164
0.489372 -0.0347361 -0.103189
-0.261054 0.550646 0.46618
-0.165977 -0.704007 0.318242
0.2208 -0.515386 -0.520634
0.17839 0.697117 0.291192
0.489372 -0.0393034 0.227803
0.489372 0.0498525 0.042582
-0.4894 -0.638396 -0.266704
-0.385284 0.582371 -0.520634
0.218439 0.570504 0.46618
0.419679 0.400542 -0.520634
-0.4894 0.21287 -0.0982641
0.287659 -0.704007 0.089323
0.489372 -0.24313 -0.0402566
-0.4894 0.595205 0.412643
-0.179508 0.436574 0.466181
0.00611618 -0.321366 0.466185
-0.4894 0.0471592 -0.448823
-0.486208 -0.704007 0.188668
0.236095 -0.249605 0.466186
-0.378366 -0.240186 -0.520634
-0.280264 0.0152213 -0.520634
-0.100248 0.53569 0.46618
-0.270017 0.697117 0.194474
-0.0660867 0.697117 0.21733
-0.4894 -0.0338649 0.211465
0.0921058 -0.490208 -0.520634
0.0229751 -0.0437862 0.466183
0.489372 -0.293307 0.193828
0.489372 0.358137 -0.142672
0.415104 0.697117 -0.297483
-0.432139 0.697117 -0.2961
-0.4894 -0.590823 -0.0108803
-0.4894 -0.404696 -0.0178948
-0.288844 0.0864136 0.466182
0.395189 -0.704007 -0.199914
0.489372 -0.0415727 0.363236
-0.4894 0.471866 0.0650515
-0.4894 0.534626 -0.400588
0.489372 -0.385074 -0.0402662
-0.251765 0.697117 0.306673
0.489372 0.396194 -0.339453
0.0391397 0.0685364 -0.520634
0.300174 -0.499037 0.466188
0.0767075 -0.558216 0.466187
-0.4894 -0.389667 0.281576
0.489372 -0.11125 -0.28596
0.323804 -0.704007 0.301272
0.412263 0.488609 0.466181
0.114984 -0.0589768 -0.520634
-0.201952 -0.301163 -0.520634
0.109237 0.697117 -0.199151
-0.437806 -0.714504 0.302113
-0.0467537 -0.704007 0.021749
-0.4894 0.444366 -0.113777
0.489372 -0.261935 -0.375273
0.489372 -0.608895 -0.069007
0.489372 0.496733 0.0048382
0.106133 0.675919 0.466174
-0.4894 -0.282272 -0.0214314
0.489372 -0.47641 0.34064
-0.178205 -0.704007 -0.0653762
-0.4894 0.391263 0.00289106
0.489372 0.483973 0.331597
0.489372 0.0835664 -0.262851
-0.4894 0.254818 -0.418377
-0.420994 -0.119015 -0.520634
0.489372 0.430686 0.217554
0.231612 0.600217 -0.520634
-0.0489028 -0.460701 0.466186
0.220422 -0.224428 -0.520634
-0.4894 -0.470765 -0.382134
0.489372 -0.00635108 -0.316409
-0.407678 0.162901 0.466181
-0.00623109 0.697117 -0.0958612
-0.4894 -0.405961 0.17033
0.0847749 -0.704007 -0.291621
0.489372 0.548984 -0.41129
-0.48374 0.697117 -0.413761
0.238939 -0.704007 -0.51797
-0.462407 -0.554757 0.466184
0.489372 0.268323 0.298379
-0.0871081 -0.131402 0.466183
0.342232 -0.683768 -0.520634
0.489372 -0.424808 -0.477932
0.104843 0.446222 -0.520634
0.0825662 0.142128 0.466182
0.489372 0.462926 -0.191243
0.433084 0.697117 -0.432928
0.487999 -0.559935 0.392165
-0.4894 0.109595 -0.110031
-0.250801 0.697117 -0.380182
-0.0293391 0.697117 0.321055
0.222759 0.100333 0.466183
0.26915 -0.704007 -0.320488
-0.4894 0.387908 -0.29676
-0.246904 -0.704007 0.126752
0.173631 -0.704007 -0.240982
0.489372 0.178795 -0.0395633
-0.4894 -0.123235 0.339545
0.489372 -0.132645 0.0516907
-0.392237 -0.358876 -0.520634
-0.379963 0.4069 0.466181
-0.188322 -0.348133 0.466184
0.14216 -0.388155 0.466187
-0.0313757 -0.704007 -0.206192
-0.172724 0.697117 0.0253615
0.489372 0.343935 0.162835
-0.0896485 -0.692162 -0.520634
-0.0614645 -0.699499 0.401635
-0.255736 0.697117 -0.236399
0.0157202 0.486821 0.46618
-0.428239 -0.704007 0.109658
-0.407642 -0.704007 -0.43957
-0.384849 0.605599 0.46618
0.449999 0.0541882 0.392165
-0.0709637 0.56139 -0.520634
-0.4894 0.569266 0.0374252
-0.342355 -0.704007 -0.364504
0.340826 0.697117 0.319085
-0.21578 0.697117 -0.496167
0.489372 -0.57888 0.0294491
0.0959597 0.221489 -0.520634
-0.10354 -0.52017 -0.520634
0.489372 -0.474998 -0.259651
0.0521735 -0.215487 0.466184
0.148478 -0.704007 -0.135463
0.489372 -0.0344591 -0.000229174
-0.248489 -0.704007 0.269835
0.200691 -0.704007 0.285627
-0.4894 -0.274712 -0.432377
0.0376637 -0.584265 -0.520634
-0.4894 -0.106773 0.0335703
0.469679 0.601774 0.538169
0.368631 0.697117 0.226175
0.411375 0.621094 -0.520634
0.024153 0.697117 0.160969
-0.103601 -0.521352 0.392165
0.122825 -0.657611 0.342827
-0.082408 -0.385724 -0.520634
0.296598 0.232851 0.466182
-0.4894 -0.612601 0.372917
-0.294674 -0.20562 0.466183
0.489372 0.665453 0.217625
0.330726 -0.0710962 0.466185
-0.272605 0.697117 -0.0464394
0.489372 0.69456 0.371522
-0.393738 -0.0248513 -0.520634
-0.0649867 0.619871 0.392163
0.410036 0.17961 0.466183
0.489372 0.20109 -0.405237
0.419779 -0.603011 -0.520634
0.489372 -0.230695 -0.16068
0.489372 -0.31232 0.0270308
0.176824 -0.0571921 0.466184
0.489372 0.592166 -0.251785
-0.4894 -0.538846 0.154469
-0.220569 0.178696 0.466181
0.489372 0.253135 -0.182074
-0.4894 -0.187156 -0.0413759
0.489372 -0.62715 -0.461825
-0.0342574 0.201856 0.466181
0.489372 -0.110157 0.44757
0.410097 -0.665045 0.342827
-0.212636 -0.0754347 -0.520634
-0.4894 0.570407 0.224067
-0.4894 0.186506 -0.305526
-0.00105314 0.596661 0.46618
0.0308002 -0.704007 0.305079
0.0612294 0.603567 0.392163
-0.0428979 -0.704007 -0.439455
0.245847 0.614329 0.392163
0.489372 0.60097 0.34926
0.489372 0.690784 0.049108
-0.4894 -0.165878 -0.297132
-0.252433 0.552853 -0.520634
-0.208212 -0.0385852 0.466182
-0.412597 -0.704007 -0.090489
0.446794 0.430166 0.392165
-0.4894 0.458493 0.165591
-0.183679 0.697117 0.154157
0.489372 -0.0466901 -0.473014
-0.4894 0.165274 0.222833
-0.232548 -0.704007 -0.381084
-0.4894 0.471762 -0.332393
0.284049 0.626782 0.541568
-0.385706 0.697117 0.0510032
-0.4894 -0.106454 0.129076
-0.4894 0.40783 0.457109
0.489372 0.261384 0.0938826
0.127471 0.634328 -0.520634
-0.369377 0.511423 0.46618
-0.4894 -0.452041 -0.13825
0.165466 -0.174775 0.466185
-0.315176 0.110993 -0.520634
0.412146 -0.323719 0.466187
0.489372 -0.594975 -0.279252
0.365325 0.697117 -0.200857
0.487052 -0.704007 0.181391
0.123979 0.329613 0.466181
0.0493667 -0.134458 -0.520634
0.469399 0.274693 0.46618
-0.4894 0.0172781 0.415569
-0.378213 0.0762404 0.466182
-0.165259 0.602594 0.53721
0.489372 -0.491373 0.0533369
0.0582803 -0.273725 -0.520634
-0.4894 0.605021 -0.260656
0.211111 -0.616938 0.389102
0.489372 0.181082 0.152718
-0.4894 -0.293621 0.449924
-0.255929 0.611195 0.392163
-0.07238 -0.0351909 -0.520634
0.0790921 0.560273 0.46618
0.245122 0.697117 0.159182
0.489372 -0.386429 0.301569
0.249813 0.697117 0.346938
0.489372 -0.174004 -0.401976
-0.0941265 0.474933 -0.520634
-0.4894 -0.0494141 -0.251923
0.283112 0.697117 -0.453203
-0.4894 -0.426344 0.360105
-0.0450297 0.697117 -0.452468
-0.333091 0.619435 0.533839
-0.322484 -0.647536 0.401635
0.489372 -0.5481 -0.417768
-0.22492 -0.495327 -0.520634
-0.105283 0.697117 -0.346403
0.454287 -0.398615 0.466188
-0.4894 0.364125 -0.469685
-0.166028 -0.436837 0.466185
-0.395561 -0.678701 -0.520634
-0.4894 -0.251498 0.15155
-0.203108 0.697117 0.379346
0.114345 0.026608 -0.520634
0.489372 -0.649679 0.314889
0.489372 0.629435 -0.439983
0.249193 0.682243 0.466173
-0.0767397 -0.704007 0.306292
0.21037 0.697117 -0.274015
0.277411 0.425226 -0.520634
0.144334 0.697117 -0.402609
0.489372 0.541148 -0.066806
-0.299566 -0.629658 -0.520634
0.489372 0.337805 -0.461386
0.278026 0.484973 0.46618
0.0983299 -0.704007 0.160877
-0.142706 -0.660508 0.401635
-0.4894 0.0621258 0.337991
0.430523 -0.220701 0.466187
0.319253 0.581217 0.46618
0.182602 -0.704007 0.170402
-0.324768 0.697117 -0.111925
-0.4894 0.299428 0.186356
-0.147747 -0.704007 -0.330567
-0.247866 -0.704007 0.00591802
-0.4894 -0.297229 -0.190521
0.308033 0.566913 -0.520634
0.489372 -0.373176 0.141974
-0.0295026 0.36999 -0.520634
-0.116137 0.619205 0.46618
-0.0380171 0.697117 0.0450628
0.489372 0.12167 0.364288
0.489372 0.414583 -0.00674657
0.275146 0.231448 -0.520634
-0.0301006 -0.111051 -0.520634
0.489372 0.0491669 -0.144363
-0.257236 -0.384419 -0.520634
0.489372 -0.288124 -0.233328
-0.0991063 0.0789981 0.466182
0.286381 -0.704007 -0.00589559
-0.403138 -0.520858 0.392165
-0.350106 0.697117 -0.509598
0.247526 -0.562314 0.461898
-0.205519 0.612451 0.46618
-0.00267528 -0.149586 0.466184
0.396723 0.298994 -0.520634
-0.4894 0.246067 -0.249064
0.342441 -0.704007 0.221536
0.06279 -0.522168 0.392165
-0.250533 -0.521614 0.392165
-0.4894 0.274404 -0.151924
0.339025 -0.624875 0.342827
0.00471136 -0.704007 -0.0947833
0.489372 -0.214305 0.233105
-0.488915 -0.704007 -0.435692
-0.4894 -0.141206 -0.462767
-0.4894 0.0396572 0.0445349
-0.421912 0.198611 -0.520634
0.402122 0.697117 0.383298
0.489372 -0.505975 0.223234
0.489372 -0.632654 -0.184853
0.489372 0.668167 -0.281225
-0.148777 0.25658 0.466181
0.428111 0.112678 -0.520634
0.220048 0.697117 0.0823921
0.489372 -0.366359 -0.18154
0.406367 0.380967 0.466182
-0.331508 -0.704007 -0.136606
0.0366906 0.697117 -0.280314
0.214204 -0.520576 0.392165
-0.480774 0.198052 0.466177
-0.462969 0.0158088 -0.520634
0.459493 -0.704007 -0.359973
0.389579 0.638598 0.466178
-0.456799 0.697117 -0.0797437
-0.4894 -0.407196 -0.3025
-0.421124 -0.704007 -0.274125
0.134568 0.332763 -0.520634
-0.360355 0.681676 0.466173
-0.164448 -0.230772 -0.520634
0.414582 0.205204 -0.520634
0.489372 0.470555 -0.368021
0.329724 -0.704007 -0.250712
-0.102533 -0.704007 0.205879
0.0230145 0.035835 0.466182
-0.4894 -0.496188 -0.458425
-0.4894 -0.205815 0.272478
-0.4894 -0.558064 0.308103
0.489372 -0.609958 0.218026
-0.398776 0.241782 0.466181
-0.4894 0.308845 0.403311
0.136977 0.633924 0.392163
0.459278 -0.545548 0.466189
0.398785 0.539054 0.392165
-0.413813 -0.704007 -0.000424369
-0.106309 0.694932 -0.520634
-0.4894 -0.275848 -0.347778
0.0989568 -0.654974 -0.520634
0.417558 -0.704007 -0.049049
-0.4894 0.623755 -0.441782
0.489372 -0.703619 -0.442166
-0.4894 -0.0938474 0.262435
-0.28627 0.625762 0.46618
-0.151816 -0.704007 -0.147469
-0.150962 0.114246 -0.520634
0.0803566 -0.704007 0.0449185
0.240865 -0.704007 -0.128777
-0.4894 0.627607 0.128731
-0.4894 0.0613094 -0.372016
-0.143182 -0.633518 -0.520634
-0.426871 0.368245 -0.520634
0.0486052 0.697117 -0.0322806
0.139228 0.248214 0.466181
-0.4894 -0.0312024 0.0129806
-0.4894 -0.622236 -0.0817283
0.0613707 -0.375631 0.466186
0.211063 -0.704007 -0.411372
0.489372 0.636594 -0.157357
0.301077 0.321218 0.466182
-0.0727531 -0.296701 0.466184
-0.270505 0.461212 -0.520634
0.489372 0.412514 -0.249662
-0.0730618 0.697117 -0.253608
0.288146 0.697117 -0.0552924
0.186868 -0.647312 -0.520634
-0.412904 -0.653664 0.342827
-0.475788 0.487624 0.392162
0.0722844 -0.601543 0.370081
0.363558 0.697117 0.0676583
0.489372 0.26903 -0.299439
0.0480504 0.318783 0.466181
0.283925 0.0243782 -0.520634
0.104127 -0.0328601 0.466183
-0.4894 -0.217807 0.438637
-0.382945 -0.459969 -0.520634
-0.0340045 -0.627977 0.401275
0.489372 -0.522761 -0.131117
-0.4894 -0.617197 -0.340168
-0.27241 -0.558223 -0.520634
-0.43431 0.697117 0.323579
-0.4894 -0.216715 -0.213764
-0.4894 -0.0697942 -0.170707
-0.44917 0.142535 0.392165
-0.427065 0.504124 -0.520634
0.457328 -0.704007 0.0724756
0.489372 0.333282 0.249082
-0.220016 -0.221379 0.466183
-0.26841 -0.630227 0.342827
0.0968414 0.486478 0.46618
0.489372 0.256487 -0.0105053
0.43173 -0.467984 -0.520634
-0.122572 0.269703 -0.520634
-0.450246 -0.0766443 0.392165
-0.4894 0.547181 -0.325428
0.486248 0.467372 -0.520634
-0.4894 -0.492284 -0.202137
0.394897 0.561958 0.46618
0.213472 -0.704007 0.0154874
0.408083 0.697117 -0.503957
0.132827 -0.704007 -0.0090389
-0.288668 0.276131 -0.520634
-0.115635 0.33778 0.466181
0.346045 -0.116096 -0.520634
-0.4894 0.643562 -0.520046
0.322641 -0.173271 0.466186
0.448285 -0.261816 0.392165
-0.190232 0.526093 0.46618
-0.434878 -0.289424 -0.520634
-0.4894 0.492575 -0.46905
0.0698689 -0.704007 -0.467828
-0.4894 0.687699 0.3827
-0.419018 -0.158174 0.466183
0.172933 0.642488 0.466178
-0.187933 0.697117 -0.205235
-0.0839956 -0.213723 -0.520634
-0.4894 -0.700861 0.0516465
-0.386567 0.268023 -0.520634
0.489372 0.134811 -0.367533
0.0918654 0.697117 0.124895
-0.4894 0.0286446 0.145113
0.489372 0.50142 0.160043
-0.315304 -0.182979 -0.520634
0.239548 0.504563 -0.520634
-0.153885 0.697117 -0.0704945
-0.4894 0.350891 -0.382641
-0.411179 0.697117 -0.148024
0.348124 -0.704007 -0.382979
-0.4894 -0.522203 0.0167768
0.408267 -0.0366101 0.466185
-0.354514 -0.281543 0.466183
-0.0189918 -0.272311 -0.520634
0.257021 -0.665334 0.342827
0.419797 -0.478134 0.466188
-0.411857 0.544864 0.392165
-0.320177 -0.704007 0.153022
0.262545 0.408305 0.466181
-0.4894 -0.556492 0.0832575
0.180185 -0.317225 0.466186
-0.176512 -0.528169 0.392165
0.177291 0.0396005 0.466183
0.38472 -0.184197 -0.520634
0.289183 -0.426708 0.466187
0.287523 0.0638383 0.466184
-0.149548 -0.0895089 0.466182
0.4786 0.61041 0.466174
0.489372 -0.297164 -0.43989
0.116321 -0.704007 -0.408376
0.489372 -0.218912 0.329037
0.16154 -0.562392 0.420198
-0.43393 -0.0864752 0.466182
0.00215267 0.386605 0.466181
-0.313781 -0.478312 0.466184
-0.364385 -0.0484757 0.466182
0.0285309 0.248446 -0.520634
-0.310348 0.697117 0.355276
0.0168019 -0.704007 0.177606
0.410541 0.697117 -0.144408
0.489372 0.325739 -0.0543722
-0.4894 -0.319093 0.297337
-0.4894 -0.102266 -0.363019
0.0713276 0.697117 -0.371753
-0.4894 -0.60389 0.192933
0.489372 -0.132418 -0.483905
0.195409 0.697117 0.221529
0.137937 -0.704007 0.396167
-0.323565 0.544612 -0.520634
0.0419724 0.697117 -0.161172
0.416833 -0.704007 -0.514849
0.489372 0.628927 0.143147
0.39269 -0.0273071 -0.520634
-0.259786 -0.704007 0.197002
0.200226 -0.429738 0.466187
0.489372 -0.3147 -0.316909
0.415935 0.697117 -0.0732378
-0.0594154 -0.562378 0.346614
-0.23815 0.396062 0.466181
-0.394458 0.697117 0.207819
-0.455801 0.697117 0.00601706
0.00314114 -0.644345 0.342827
-0.39532 0.697117 -0.372293
0.126688 0.61058 0.560725
0.15293 0.113263 0.466182
-0.0930063 0.689716 0.449006
0.489372 0.388393 -0.519958
-0.437521 0.697117 0.130347
-0.27722 -0.0867156 0.466182
-0.4894 -0.139267 -0.133557
-0.32081 -0.526383 0.392165
-0.392404 -0.562309 0.465877
0.489372 0.23709 -0.46573
0.489372 0.200101 -0.135842
0.389636 0.100097 0.466184
-0.270927 0.542538 0.392165
-0.4894 0.0849626 -0.180068
-0.4894 -0.410496 -0.473465
-0.230627 0.265495 0.466181
0.489372 -0.192065 -0.10215
0.174725 0.392004 0.466181
-0.4894 0.333145 0.302472
-0.4894 0.518329 -0.115244
-0.365354 -0.702932 0.400406
0.489372 -0.391221 -0.340424
-0.4894 0.639743 0.247069
0.489372 -0.19569 0.0111402
0.487454 0.205069 0.465739
-0.0967102 -0.704007 -0.0270824
0.109855 0.697117 0.222753
0.320663 -0.363487 0.466187
-0.231217 0.697117 -0.313213
-0.4894 0.398518 -0.166252
0.392464 -0.620129 0.393045
0.489372 -0.441049 0.126516
0.447886 -0.498058 0.392165
0.239739 0.688719 -0.520634
0.162692 -0.249903 0.466186
0.489372 0.200425 -0.227414
-0.488075 0.697117 -0.337389
0.0472206 0.407509 -0.520634
-0.0928543 0.697117 0.293081
-0.4894 0.297266 0.0783949
-0.4894 0.0151944 0.260389
0.294427 0.697117 -0.194325
-0.4894 0.184321 0.085945
-0.4894 0.179961 -0.465197
0.227512 0.697117 -0.0107639
0.489372 -0.0681625 0.299616
-0.451587 -0.183704 0.392165
-0.228789 -0.50958 0.466185
0.0344906 -0.429811 -0.520634
0.150955 0.697117 -0.136058
0.489372 0.478698 0.420009
0.215534 0.552525 0.392165
0.354949 -0.347021 -0.520634
0.260259 0.317198 -0.520634
-0.4894 0.690709 -0.258678
-0.0987929 -0.704007 -0.193058
-0.304151 -0.360211 0.466183
-0.355986 -0.704007 -0.295729
-0.0785849 0.540888 0.392165
0.172799 0.0812154 -0.520634
-0.270295 -0.704007 -0.0895217
-0.210101 0.611435 -0.520634
-0.4894 -0.66142 0.32494
-0.4894 -0.70215 0.258893
0.222532 -0.333975 -0.520634
-0.420538 -0.537378 -0.520634
0.489372 0.499112 -0.133329
-0.294134 0.697117 -0.466417
0.119505 0.697117 0.325718
-0.158284 -0.704007 0.119907
0.331817 0.269373 -0.520634
-0.4894 0.107733 -0.0239997
0.489372 -0.438658 -0.402961
-0.10711 0.697117 0.0443906
-0.4894 -0.0528296 0.445293
-0.0451249 0.0370158 0.466182
0.489372 -0.0707885 -0.164356
0.388855 0.53669 -0.520634
0.487169 0.697117 -0.0185813
0.489372 -0.107124 0.222619
-0.4894 -0.0105319 -0.0967025
0.481827 0.697117 -0.349037
0.206808 0.189164 -0.520634
-0.4894 0.577946 -0.0813937
-0.414243 -0.704007 -0.158347
-0.171018 0.417027 -0.520634
-0.4894 -0.401741 -0.0927419
-0.0155418 -0.525223 0.392165
-0.4894 -0.182163 0.124321
0.489372 0.615301 0.266561
-0.4894 -0.339835 -0.295069
-0.309971 0.697117 0.255211
0.489372 0.126729 -0.118261
-0.4894 -0.49068 0.301789
-0.0210313 -0.383327 0.466185
-0.214497 0.0616863 -0.520634
-0.125376 -0.191869 0.466183
-0.0183188 0.697117 -0.019564
-0.438295 0.648706 0.466177
0.489372 0.510969 0.0707121
0.317143 -0.00508664 0.466184
-0.444479 0.574256 0.46618
0.468024 -0.704007 0.348493
0.218676 0.697117 -0.43117
-0.144713 -0.570558 0.342827
0.0234991 -0.704007 -0.319324
0.489372 0.0117405 -0.431461
-0.18327 0.697117 -0.36357
0.489372 -0.0966263 0.147975
-0.105855 -0.45109 -0.520634
-0.4894 0.63432 -0.196063
0.454111 -0.0966753 0.392164
-0.303372 0.697117 0.0155028
0.257882 0.157424 0.466183
0.489372 0.620702 -0.0829187
-0.056225 0.48075 0.46618
0.421779 -0.69558 0.401635
0.489372 0.132004 0.22161
0.0605477 0.635874 -0.520634
-0.4894 0.455832 -0.0280776
0.316038 0.608961 0.392163
0.489372 0.027808 0.220111
-0.4894 -0.0819915 -0.42667
-0.275493 -0.704007 -0.234165
0.329811 -0.704007 -0.18399
-0.323606 -0.704007 0.0103902
0.355905 -0.534407 0.392165
-0.4816 -0.704007 -0.0962333
-0.425066 -0.318934 0.466183
0.0701632 -0.704007 -0.106489
-0.4894 0.631569 -0.120625
0.221016 0.263776 0.466181
-0.414719 -0.704007 0.177216
-0.448532 -0.467672 0.392165
-0.369015 0.331817 0.466181
-0.403856 0.697117 -0.23524
-0.108536 -0.562319 0.459621
-0.323805 0.401376 -0.520634
0.489372 0.133342 0.0085844
-0.181725 0.123376 0.466182
-0.4894 -0.0205253 -0.402155
0.269707 0.697117 -0.118772
0.115776 -0.476297 0.466187
-0.334941 -0.391769 -0.520634
0.489372 -0.172572 -0.332351
-0.4894 -0.478352 -0.316547
0.489372 -0.428347 -0.206549
-0.296217 -0.56841 0.342827
0.489372 -0.638071 -0.00443308
0.489372 -0.455523 -0.07756
-0.4894 0.505704 0.211673
-0.4894 0.0159684 -0.259543
-0.4894 -0.551663 0.232918
0.477993 0.0456688 0.466182
0.15874 0.510423 0.46618
0.428043 -0.704007 -0.269161
0.450934 -0.422701 0.392165
-0.4894 -0.361148 -0.16924
0.489372 0.530253 -0.223855
0.0611534 0.138109 -0.520634
0.489372 0.370143 -0.399554
0.489372 0.0761231 -0.497607
-0.318227 -0.043365 -0.520634
0.359236 0.697117 -0.0406749
-0.371897 0.150923 -0.520634
-0.4894 -0.703458 -0.271941
0.223623 -0.593393 -0.520634
-0.132832 -0.0597047 -0.520634
0.0241337 -0.704007 -0.240415
0.151024 -0.143277 -0.520634
-0.4894 0.532655 -0.256022
-0.287861 0.697117 -0.179811
-0.4894 -0.3448 0.148513
-0.210642 -0.631069 0.401635
-0.4894 0.400245 -0.233021
0.476293 0.607979 -0.520634
-0.184828 0.697117 0.317106
-0.4894 -0.411242 0.0855941
-0.0407364 -0.333643 -0.520634
0.310505 -0.52508 -0.520634
0.422624 -0.704007 0.187719
0.155162 -0.475584 -0.520634
-0.149802 0.634117 0.392163
-0.4894 0.584463 0.344876
-0.308418 -0.25192 -0.520634
-0.4894 0.427828 0.285342
-0.279387 0.190925 -0.520634
0.0541053 -0.208279 -0.520634
0.289394 -0.621506 0.394745
-0.127195 0.0543834 -0.520634
0.489372 0.0339985 0.114223
-0.126239 0.47257 0.46618
-0.442037 0.697117 0.258342
-0.419725 -0.626836 0.400725
0.254174 -0.704007 0.144069
0.0012767 0.620652 0.559017
-0.164858 -0.363593 -0.520634
-0.4894 0.224554 0.19831
0.489372 0.00639524 -0.0540155
-0.0910851 -0.704007 -0.360489
0.489372 -0.670573 0.238788
0.489372 -0.586198 -0.139944
-0.0392594 0.697117 0.152412
0.115194 0.697117 -0.519592
-0.0641915 0.215053 -0.520634
-0.470341 -0.273779 0.392164
-0.420113 -0.602936 -0.520634
0.489372 0.572158 -0.324388
0.141484 -0.613935 0.385391
0.209808 -0.562378 0.344236
-0.21235 -0.704007 -0.441529
0.489372 -0.324468 0.0895672
0.489372 -0.696591 -0.0599521
0.489372 0.0152809 0.331074
0.371777 0.697117 -0.449801
0.24985 -0.0607249 0.466184
-0.421439 -0.193579 -0.520634
-0.4894 -0.553847 -0.343897
0.299958 0.644174 0.466178
0.0192962 -0.704007 0.0145845
0.489372 0.626529 0.0797844
-0.328117 0.648828 0.392162
-0.0331084 0.127144 -0.520634
-0.4894 0.360296 0.16545
-0.488256 -0.512906 -0.520634
0.0202192 0.697117 -0.412068
-0.239819 -0.144163 -0.520634
-0.43451 0.618674 0.392163
0.235733 -0.449713 -0.520634
0.274927 -0.119471 -0.520634
-0.0433085 -0.704007 0.156652
-0.4894 -0.64644 -0.461117
-0.4894 -0.0929609 -0.297344
-0.4894 -0.57059 -0.22047
-0.4894 -0.483468 0.440184
-0.4894 0.195409 -0.037872
0.489372 -0.484764 -0.45914
-0.124749 0.0136415 0.466182
-0.16266 0.329501 -0.520634
0.140238 -0.704007 0.304315
-0.4894 0.109849 0.0513427
0.489372 -0.548457 -0.353249
-0.4894 0.234297 0.31753
-0.4894 0.487618 -0.169946
-0.411416 0.697117 -0.439766
-0.0849812 0.238591 0.466181
0.489372 -0.430359 0.00299491
-0.331156 0.0349533 0.466182
-0.000131977 -0.634137 -0.520634
0.489372 0.641621 0.413037
0.00276806 0.663463 0.392162
-0.16299 -0.646603 0.342827
0.278427 0.697117 -0.320695
0.28194 -0.314481 0.466187
-0.0203697 -0.704007 -0.363701
-0.4894 0.11542 -0.440816
-0.00854555 -0.542422 -0.520634
-0.223676 0.689716 0.45798
-0.4894 -0.641206 -0.203762
-0.4894 0.535949 0.431801
-0.4894 0.271328 0.452932
0.489372 -0.443008 0.275773
0.228986 0.0546064 -0.520634
-0.0714964 0.143081 0.466182
0.140797 0.697117 0.0865902
-0.449462 0.0587209 0.392165
-0.205626 -0.704007 -0.224185
-0.0203217 -0.400624 -0.520634
-0.196226 0.220074 -0.520634
-0.421837 -0.566334 0.342827
0.051437 0.697117 -0.519868
-0.4894 0.336031 -0.0249968
0.309962 0.112284 -0.520634
-0.447093 0.0656652 0.466182
0.119217 -0.407357 -0.520634
0.350628 0.196194 0.466183
0.418362 0.697117 -0.373032
-0.223935 -0.704007 0.339296
0.267572 -0.70372 0.398935
-0.4894 0.637358 0.0625659
0.489372 -0.551397 0.0845825
-0.25302 0.330651 -0.520634
0.489372 0.119619 0.0692602
0.147044 0.697117 -0.264607
-0.00024544 -0.514103 0.466187
-0.12729 0.697117 0.178787
0.231025 -0.704007 -0.262745
-0.473281 0.616889 0.533327
0.489372 0.563764 0.17868
0.489372 0.078376 -0.323923
0.489372 0.492037 0.230288
-0.4894 -0.218694 -0.457195
0.489372 0.362946 0.0683871
-0.0189534 0.538107 0.46618
-0.4894 -0.365584 0.433458
0.336208 0.399918 -0.520634
0.489372 -0.305695 0.381454
-0.4894 -0.666273 -0.376496
0.0524052 0.626096 0.46618
-0.335085 0.126214 0.466182
0.489372 0.672656 0.292451
-0.4894 -0.267115 -0.109816
-0.4894 -0.348725 0.00614783
0.489372 0.272436 0.372058
0.489372 0.193273 0.333766
0.489372 -0.239532 0.165488
-0.4894 0.260075 -0.0599867
0.13081 0.697117 -0.0312257
-0.4894 0.0489746 -0.113308
-0.0623857 0.420986 -0.520634
-0.44337 -0.704007 -0.211571
-0.4894 -0.277297 0.0752458
0.470873 -0.192252 -0.520634
0.255781 -0.0357361 -0.520634
0.485706 -0.270182 -0.520634
-0.00584455 -0.704007 0.378146
-0.486897 0.209009 -0.520634
0.489372 -0.320052 -0.0329488
0.483193 -0.190996 0.466185
0.489372 0.688584 -0.408404
-0.4894 -0.225839 0.20628
0.12983 0.432455 0.466181
0.489372 -0.186302 0.085946
-0.340383 0.564418 0.46618
0.489372 -0.59707 -0.519179
0.0353589 0.179722 0.466181
-0.329052 0.697117 0.0717304
0.489372 0.0635296 -0.205988
0.489372 0.0979301 -0.441428
-0.136156 -0.318122 0.466184
0.449704 0.169509 0.392165
-0.4894 -0.452117 0.0189768
0.489372 -0.582944 0.136773
0.489372 0.542384 0.317816
-0.4894 -0.558776 -0.0983516
-0.452705 0.0864078 -0.520634
0.0524283 0.54424 0.392165
0.489207 -0.349983 0.462888
-0.4894 0.341777 -0.147112
0.360307 -0.579676 -0.520634
0.489372 -0.125478 -0.112657
0.428225 -0.334428 -0.520634
-0.205312 0.697117 0.0903182
0.45255 -0.6044 0.373612
-0.106579 -0.430365 0.466185
0.258669 -0.704007 0.27119
0.332739 -0.704007 0.155282
-0.129906 0.55212 -0.520634
0.489372 0.451734 0.274255
-0.4894 -0.0932868 0.202797
-0.0178159 0.58845 -0.520634
-0.261327 -0.148527 0.466183
0.00714408 0.262195 0.466181
0.335557 0.500414 0.46618
0.489372 -0.352473 0.252649
0.431392 -0.562411 0.410205
-0.375054 0.644313 -0.520634
-0.356647 -0.51316 -0.520634
-0.382416 0.424675 -0.520634
0.163093 0.463199 -0.520634
0.326339 -0.562361 0.436921
0.489372 0.340423 0.459125
0.417426 0.69279 0.466171
0.191986 0.650491 -0.520634
0.250469 0.695979 0.408604
-0.0212919 -0.0830809 0.466183
-0.00690322 0.697117 0.217746
-0.322 0.697117 -0.250524
0.489372 0.528193 -0.469103
-0.211616 -0.704007 -0.283027
-0.4894 0.304999 -0.469718
-0.361306 -0.187167 0.466183
0.0036623 0.697117 0.105684
-0.0775782 0.697117 -0.403309
-0.135139 -0.704007 0.254976
0.489372 -0.48632 -0.177436
-0.216302 -0.634346 -0.520634
-0.269416 0.697117 -0.520397
-0.103517 -0.704007 0.0573543
-0.4894 0.20363 -0.389385
0.489372 -0.394723 -0.103147
0.0655391 -0.675242 0.342827
0.447762 -0.704007 0.130452
-0.456227 -0.649271 -0.520634
0.0509504 0.696047 0.465472
0.248917 -0.172074 -0.520634
0.140174 -0.704007 -0.0773715
0.203654 0.339548 -0.520634
-0.4894 -0.0398708 0.150287
-0.057225 0.697117 0.372647
-0.0212688 0.0104136 -0.520634
-0.210316 -0.562382 0.425647
-0.340284 0.243301 0.466181
-0.4894 -0.683382 0.134022
0.13447 0.189914 0.466182
-0.4894 -0.345874 -0.0548732
0.127152 0.593574 0.46618
0.489372 -0.702763 -0.309787
-0.435213 0.300315 -0.520634
-0.451157 -0.398882 -0.520634
0.303541 -0.259792 -0.520634
0.168776 -0.11654 0.466184
-0.377497 0.697117 -0.316772
0.489372 -0.507936 0.287442
0.489372 -0.0785472 0.073416
0.13948 0.260252 -0.520634
0.283093 -0.655406 -0.520634
0.489372 0.243878 -0.353004
-0.4894 -0.247282 0.0253365
-0.0295439 -0.704007 -0.0476942
0.0615111 0.485105 -0.520634
-0.0750166 -0.704007 -0.254582
0.489372 0.00235672 0.167776
0.387286 -0.704007 -0.142296
0.126723 0.695979 0.406771
-0.276474 -0.704007 0.0677958
-0.214274 0.697117 -0.0152563
-0.323396 0.367759 0.466181
-0.4894 0.213772 0.263206
-0.4894 0.161978 0.149647
-0.4894 0.171407 -0.138894
0.489372 0.314406 -0.189176
-0.4894 -0.133568 -0.520291
0.489372 0.332338 -0.303773
0.309257 0.697117 0.197807
0.437916 0.697117 0.0749228
-0.311529 0.513079 0.46618
-0.357333 -0.637312 0.342827
0.489372 0.216558 -0.519798
-0.123525 -0.704007 0.368783
0.396148 0.697117 0.175382
-0.4894 0.157149 -0.255787
0.106742 -0.235599 0.466185
0.03143 -0.269343 0.466185
-0.389511 -0.704007 0.0668996
-0.0927582 0.697117 -0.0904255
0.489372 -0.215187 -0.22432
-0.136049 -0.567694 -0.520634
-0.28901 -0.702436 -0.520634
-0.250349 0.0165598 0.466182
-0.4894 0.238042 -0.336593
0.353344 0.602345 -0.520634
0.447783 -0.0032472 0.392165
0.167731 -0.250949 -0.520634
-0.408348 -0.704007 0.247032
0.282485 0.173087 -0.520634
-0.4894 0.335648 0.230865
-0.4894 0.588493 -0.017365
0.489372 0.392996 0.401863
0.0385714 -0.704007 0.230645
0.47214 -0.704007 -0.184007
-0.4894 0.0897165 0.287764
0.260299 -0.376972 -0.520634
-0.0270785 0.524728 -0.520634
0.0845114 -0.704007 -0.348775
-0.136907 -0.704007 -0.490757
-0.178083 -0.704007 0.390596
-0.155338 0.384809 0.466181
-0.0828686 -0.152088 -0.520634
-0.130829 0.697117 -0.205015
-0.4894 -0.509032 -0.134671
0.249738 -0.608735 0.342827
0.327956 -0.704007 -0.31937
-0.00700611 0.607322 0.392163
0.489372 -0.012281 0.277954
0.18548 0.600892 0.392163
-0.058051 0.579482 0.46618
-0.063553 0.641002 0.466178
0.431962 0.484357 -0.520634
0.489372 -0.154637 -0.225622
-0.410933 -0.438134 0.466184
-0.447257 0.605435 -0.520634
0.489372 0.314112 0.333556
0.489372 -0.483163 -0.515843
0.489372 -0.119254 0.341561
0.486771 -0.0893406 -0.520634
0.489372 -0.0623451 -0.0537174
-0.312697 -0.416216 0.466184
0.149028 0.581986 -0.520634
0.301942 0.697117 0.369004
-0.0717685 0.697117 -0.196087
-0.167951 -0.484204 -0.520634
-0.183009 -0.174693 -0.520634
-0.243632 -0.359609 0.466184
-0.4894 0.12272 -0.32939
0.0366416 -0.109105 0.466183
0.243031 0.621271 0.46618
0.489372 0.380035 -0.194628
0.354817 -0.512901 0.466188
-0.320524 0.697117 -0.379128
-0.163257 0.67737 -0.520634
0.436621 -0.548337 -0.520634
0.489372 0.437906 -0.139376
-0.0685752 0.6435 -0.520634
0.120362 0.392173 -0.520634
0.124648 -0.704007 -0.186387
-0.451904 0.426935 0.392165
0.404274 -0.704007 -0.380808
0.0153307 -0.704007 -0.446527
-0.4894 -0.22559 -0.372827
0.356282 -0.468805 -0.520634
0.100599 -0.562427 0.402174
-0.4894 0.0454467 -0.318221
0.266034 -0.704007 -0.37641
-0.163418 0.697117 -0.154878
-0.26935 -0.0706558 -0.520634
-0.4894 0.402723 -0.0518952
0.433484 0.230418 0.466183
-0.363328 -0.0764135 -0.520634
-0.0386027 0.697117 -0.308539
0.489372 0.54855 0.0293404
-0.4894 0.320764 -0.269221
-0.438798 -0.562425 0.403114
0.489372 0.254842 -0.245489
-0.371916 -0.704007 0.298078
0.014973 -0.316509 -0.520634
-0.4894 -0.145893 0.282325
0.489372 -0.359949 -0.473223
0.398938 -0.704007 0.304608
-0.4894 -0.0332976 0.392237
0.489372 0.0724624 0.334011
-0.444864 -0.371464 0.466183
0.36672 -0.223459 0.466187
0.489372 0.275632 0.147601
0.489372 -0.307745 -0.173773
0.371526 0.697117 -0.256039
0.489372 0.324102 0.111075
-0.251757 0.697117 0.121723
-0.4894 0.430855 -0.468791
-0.302725 -0.704007 0.258614
-0.276747 -0.704007 0.322617
0.459086 -0.380392 -0.520634
0.489372 -0.087431 -0.235996
-0.4894 -0.472705 0.180066
0.123423 -0.704007 0.102395
-0.269261 0.0695259 -0.520634
-0.4894 -0.259534 0.285594
0.489372 0.386235 -0.0541866
0.27201 0.697117 -0.389177
-0.285656 -0.704007 -0.396119
-0.4894 0.179614 0.357831
0.162466 -0.704007 0.221731
0.0681978 -0.0229446 -0.520634
-0.229113 0.497543 -0.520634
-0.0225255 -0.704007 -0.142645
0.169673 -0.659376 0.401635
0.489372 0.0809837 0.419737
-0.4894 -0.647946 0.0365828
0.489372 -0.516358 -0.307963
0.283219 0.697117 0.10724
-0.327372 0.697117 -0.0502596
-0.459189 0.353286 0.392164
0.0254885 0.697117 0.318754
-0.224214 0.697117 -0.428145
-0.4894 -0.394318 0.223916
0.332113 -0.704007 -0.0500991
0.451405 0.689716 0.410699
0.112931 -0.270479 -0.520634
-0.471797 -0.704007 0.355351
0.21776 -0.190838 0.466185
0.28436 -0.704007 -0.0795446
0.427744 -0.704007 0.0265346
-0.480108 0.346714 -0.520634
-0.101026 -0.508611 0.466186
0.489372 0.0291311 -0.258385
0.489372 0.0592738 -0.0112072
-0.342017 -0.668035 -0.520634
-0.4894 0.675371 -0.463454
-0.0131168 0.440536 0.466181
0.347565 0.654488 0.392162
0.173965 0.696969 0.464248
0.37493 -0.704007 0.0768324
-0.4894 0.525448 0.0747622
0.454804 0.584055 0.392164
-0.22243 -0.704007 0.0616928
0.101739 -0.656027 0.401635
-0.4894 0.215935 0.0258539
0.489372 0.43816 0.163705
-0.445272 -0.042066 -0.520634
-0.150364 0.697117 0.0772641
-0.305959 0.697117 0.150609
-0.4894 0.395752 -0.35212
-0.0821023 -0.0956013 -0.520634
0.489372 0.528788 0.376655
-0.286088 0.244326 0.466181
0.489372 0.372222 0.209066
-0.4894 0.6952 0.145453
0.46564 0.497161 0.466177
-0.4894 0.600389 0.175436
-0.355241 0.0130934 -0.520634
0.0417628 -0.509853 -0.520634
-0.0973784 0.121236 -0.520634
-0.4894 -0.343331 -0.429145
0.369442 -0.632877 -0.520634
-0.333942 -0.532906 0.466185
-0.206014 -0.29717 0.466183
0.489372 -0.0487382 -0.283039
-0.4894 -0.128258 -0.0159101
0.03363 -0.562406 0.41302
0.38594 0.15044 -0.520634
0.434603 -0.0835684 0.466186
0.456949 0.345427 -0.520634
-0.4894 -0.464074 -0.247963
0.0858538 0.697117 -0.247587
-0.142866 0.568443 0.46618
0.489372 -0.551932 0.339063
-0.236242 0.697117 0.255258
-0.4894 -0.214436 -0.319966
0.13543 0.185151 -0.520634
0.489372 -0.656378 0.0459916
0.436848 0.697117 0.2433
0.489372 0.205215 0.221621
0.489372 -0.415409 0.34667
0.489372 -0.0326149 -0.363078
0.489372 -0.644197 -0.300288
0.434863 -0.231761 -0.520634
-0.257946 0.697117 0.365381
0.489372 -0.560876 0.197146
-0.4894 0.122215 0.363664
-0.0139466 -0.704007 0.0637832
0.489372 -0.437291 -0.313594
-0.4894 -0.57954 -0.292968
-0.227297 0.460166 0.46618
0.489372 -0.131781 -0.36662
-0.488752 0.348019 0.464539
0.175504 -0.649908 0.342827
0.179567 0.697117 -0.221806
0.489372 -0.46398 0.190611
-0.4894 -0.554268 0.417451
-0.4894 -0.334051 -0.228849
0.489372 0.433986 -0.302086
-0.357506 -0.56242 0.405512
0.489372 -0.69922 0.295736
0.434853 0.336141 0.466182
-0.430965 -0.664414 -0.466155
0.181042 -0.704007 -0.516258
0.489372 0.0239609 0.410972
0.190651 -0.0711914 -0.520634
-0.4894 0.235087 -0.197171
0.446678 -0.335281 0.392165
0.489372 -0.578621 -0.0255151
0.433239 -0.664377 -0.458001
-0.247372 0.119346 0.466182
0.489372 0.578347 -0.1147
-0.4894 0.568499 0.294418
0.0996145 0.526047 -0.520634
0.243642 0.697117 0.294393
-0.319235 -0.704007 -0.191086
0.35171 -0.704007 -0.462217
0.489372 0.649456 -0.208628
0.489372 -0.340804 0.342166
0.24991 -0.28117 -0.520634
0.163011 0.697117 0.355299
-0.486257 -0.656973 0.40144
0.188632 0.136906 -0.520634
0.0215289 -0.414133 0.466186
-0.4894 -0.392972 0.0344761
0.489372 -0.105641 0.00207278
0.489372 0.422999 0.0548158
-0.4894 0.645379 0.428143
0.0529139 0.0988061 0.466182
0.187316 -0.704007 -0.19037
0.489372 -0.361159 0.192983
-0.0929024 -0.234959 0.466184
0.0178481 -0.622575 0.396066
-0.4894 0.409424 0.0520215
-0.4894 -0.444068 0.128101
0.376723 -0.704007 0.369363
0.489372 -0.37201 0.0104229
-0.148033 -0.314068 -0.520634
0.0940818 0.594095 -0.520634
0.0926413 0.0917098 -0.520634
-0.4894 0.533579 0.356848
-0.0979371 0.697117 -0.469101
-0.0929678 0.317715 -0.520634
-0.357058 0.697117 0.00731227
0.489372 -0.162585 0.240393
0.330586 0.697117 -0.32305
-0.4894 -0.420322 -0.366689
0.440493 -0.0482362 -0.520634
-0.0395815 0.697117 -0.50548
-0.193508 -0.704007 0.273935
-0.195205 0.227209 0.466181
-0.225964 -0.704007 -0.0445115
-0.4894 -0.232623 -0.0666829
-0.0301304 0.697117 -0.142077
0.489372 -0.548577 -0.0741609
-0.4894 -0.275304 -0.484345
-0.4894 -0.530874 -0.397118
0.381513 0.697117 0.116367
0.327238 -0.704007 0.0446474
0.489372 -0.0220734 0.0615168
-0.4894 0.116203 -0.223942
0.42029 0.697117 -0.23228
0.105581 -0.54026 -0.520634
-0.4894 -0.444956 -0.0641762
0.0674843 0.697117 0.189269
-0.4894 -0.564317 -0.474725
0.105122 0.697117 0.0136537
-0.343376 0.697117 0.199867
0.489372 0.124304 -0.0570184
0.456272 -0.656536 -0.520634
0.114331 -0.704007 -0.515654
-0.485902 0.697117 0.322095
0.0950981 -0.333086 -0.520634
-0.259907 -0.290257 -0.520634
-0.333077 -0.704007 -0.416417
0.0232529 0.697117 -0.472917
0.301462 -0.238216 0.466186
-0.44175 0.425129 0.466181
-0.285214 -0.704007 0.373392
-0.486582 -0.174341 0.465922
0.230182 0.520466 0.46618
-0.156966 -0.0349813 0.466182
-0.411838 -0.704007 0.35296
0.108254 0.697117 0.275604
0.426334 0.625621 0.524627
0.489372 -0.0476507 0.414157
0.31792 -0.704007 0.3522
-0.026015 -0.704007 0.298883
-0.4894 -0.312055 -0.384065
-0.175977 -0.603041 0.371932
-0.10066 -0.704007 -0.298925
0.138996 -0.561999 0.466187
0.0460273 0.697117 -0.215447
0.240517 -0.704007 0.0589004
0.387536 0.0235733 -0.520634
-0.354608 -0.307118 -0.520634
-0.260334 0.323721 0.466181
0.489372 -0.082704 -0.328279
0.489372 -0.623411 -0.236895
-0.0469662 -0.654365 -0.520634
0.488224 0.697117 0.0996952
0.489372 -0.415287 -0.266981
0.489372 -0.259759 -0.118824
0.0676256 0.654532 0.392162
0.315565 -0.3909 -0.520634
-0.4894 -0.0186493 -0.0363306
-0.380973 -0.150418 -0.520634
-0.0113773 0.0625787 -0.520634
-0.363871 -0.704007 -0.489934
0.489372 0.196512 0.00992
0.489372 0.287495 -0.453963
-0.20634 0.697117 0.207817
0.201086 -0.704007 -0.469637
-0.383919 0.697117 0.329451
0.0891778 -0.704007 0.308379
0.372133 0.5854 0.392164
0.489372 0.356371 0.361478
-0.4894 0.51867 0.0245913
0.346923 -0.288713 -0.520634
0.304181 -0.521797 0.392165
0.489372 -0.455022 0.386604
-0.4894 0.44108 0.105115
-0.4894 0.451388 0.359695
0.183809 0.697117 -0.33102
-0.148444 -0.5624 0.416437
0.489372 0.343454 -0.356738
0.484452 0.697117 -0.457885
-0.31253 0.595521 -0.520634
0.377773 0.371399 -0.520634
-0.0673809 0.36647 0.466181
0.422415 -0.270428 0.466187
0.489372 0.127939 -0.286619
-0.4894 -0.171035 0.0155047
-0.0721464 -0.181277 0.466183
0.489372 -0.2401 0.276287
0.200738 0.697117 -0.125311
-0.275722 0.697117 -0.100848
0.489372 0.149635 0.415809
-0.192818 0.462775 -0.520634
-0.0224092 -0.00780976 0.466182
0.356132 -0.462419 0.466188
-0.4894 -0.437253 -0.430944
-0.318037 0.0575565 -0.520634
0.489372 0.322442 -0.104482
-0.445602 -0.704007 -0.0463269
0.173197 0.298113 0.466181
0.489372 -0.146288 0.116148
-0.322975 0.161771 -0.520634
-0.102605 -0.704007 -0.441691
0.16798 -0.196986 -0.520634
0.250126 -0.499906 0.466187
0.489372 -0.658719 -0.116424
0.489372 0.536723 -0.287989
-0.229929 -0.0284995 -0.520634
-0.170077 -0.704007 -0.375316
-0.231252 0.0627517 0.466182
0.489372 0.434084 0.328984
-0.239655 -0.704007 -0.484877
-0.00922536 0.32438 -0.520634
0.437555 0.44558 0.466181
0.279186 -0.562394 0.419133
0.377983 -0.0870791 0.466186
-0.4894 -0.425325 0.409975
-0.224847 -0.254825 -0.520634
-0.4894 0.0889636 0.173277
-0.221151 0.540137 0.392165
-0.152982 -0.147214 0.466183
0.489372 0.134811 0.171187
0.134342 -0.704007 -0.286963
-0.4894 -0.0621643 0.0556764
0.339048 0.353398 0.466181
-0.4894 -0.616111 -0.144171
0.489372 -0.0527623 0.17991
0.257473 0.366828 -0.520634
-0.219937 -0.347487 -0.520634
-0.00583686 0.337576 0.466181
0.294979 0.697117 0.299982
0.489372 -0.61429 0.272042
-0.48675 0.697117 -0.51716
-0.433374 -0.704007 -0.495968
0.489372 -0.227218 -0.423033
-0.4894 0.49818 -0.518272
-0.384279 0.697117 -0.0892303
0.336323 0.00459137 -0.520634
0.400523 -0.0787203 -0.520634
-0.4894 0.0132405 -0.360591
-0.352965 0.689716 0.418001
0.489372 -0.208973 -0.36572
0.280152 -0.704007 -0.257827
-0.4894 0.271229 0.350276
-0.432408 0.112775 0.466182
-0.4894 -0.649571 0.174293
0.0912423 -0.16401 -0.520634
0.435026 0.0795875 0.466184
-0.202771 0.697117 -0.0768513
0.119336 -0.0797309 0.466184
0.256629 0.297815 0.466181
-0.477955 0.616277 0.466173
-0.0603664 -0.562438 0.395839
-0.4894 0.0542401 -0.228615
-0.119841 0.697117 0.242424
0.292673 -0.102242 0.466185
-0.178508 0.174207 -0.520634
0.489372 -0.263245 0.0241221
-0.395434 -0.704007 -0.350447
-0.4894 0.153344 0.418229
-0.019063 0.236345 -0.520634
0.489372 0.0829366 0.223372
0.378353 -0.359336 0.466187
-0.4894 -0.0202551 -0.212424
-0.0934774 -0.61827 0.390747
-0.4894 0.688296 0.267658
0.369948 0.463788 0.466181
-0.432848 -0.502118 0.466184
0.149762 0.697117 -0.0870755
-0.4894 0.54732 -0.458922
0.300385 0.615272 -0.520634
-0.4894 -0.55307 -0.0497394
0.489372 -0.189754 -0.0532654
-0.0573558 -0.677883 0.342827
0.489372 -0.303319 0.145956
-0.4894 -0.0597143 0.297429
1.70637e-05 -0.149551 -0.520634
0.489372 -0.338846 -0.359409
0.489372 -0.235503 0.394722
0.489372 0.578196 0.0681717
-0.4894 -0.667575 -0.305878
0.21232 -0.704007 0.333624
-0.4894 -0.0178897 -0.45274
0.451487 0.569817 0.466178
0.158625 -0.52257 0.392165
0.036882 -0.0873185 -0.520634
-0.380211 0.45565 0.46618
0.489372 -0.515038 0.37093
0.48326 -0.137519 0.392164
-0.450922 0.258728 0.392165
-0.4894 0.492258 0.130495
0.170526 0.22162 -0.520634
0.382886 -0.704007 0.248583
-0.378317 -0.704007 -0.0498866
-0.4894 0.586827 -0.206476
0.489372 0.167794 0.105992
0.489372 0.220419 -0.0674974
0.489372 0.589156 -0.467113
-0.126595 0.12983 0.466182
0.489372 0.504659 0.287252
0.284986 -0.704007 -0.50271
0.139105 -0.0150435 -0.520634
-0.0657242 -0.550411 -0.520634
-0.4894 -0.0559883 -0.113353
0.283127 0.48355 -0.520634
-0.274327 -0.704007 -0.137703
-0.364943 -0.612491 0.383608
-0.433528 0.689716 0.441092
0.0824249 0.697117 0.0760612
-0.211102 0.593372 0.392164
-0.202127 0.357235 -0.520634
0.489372 0.014654 -0.372491
0.0347839 -0.704007 -0.148312
-0.364333 -0.704007 0.133719
-0.213873 -0.401685 0.466184
0.489372 0.485735 -0.431089
0.489372 -0.251797 -0.313418
0.489372 0.681202 0.152781
0.489372 -0.414752 0.419952
-0.367547 0.00352212 0.466182
0.0362829 0.697117 -0.328383
-0.4894 0.0836376 -0.489718
-0.4894 -0.591753 0.0506523
0.370677 0.697117 0.281476
-0.489122 -0.1068 0.392163
-0.4894 0.449364 -0.290002
-0.4894 0.663832 -0.302928
0.0469734 0.697117 -0.0875669
0.355524 -0.417842 -0.520634
0.489372 -0.185479 -0.180685
-0.4894 0.524214 0.258402
0.489372 0.282725 0.418765
-0.4894 0.587898 0.0814527
0.344144 0.0854299 0.466184
-0.128538 -0.186395 -0.520634
-0.4894 0.488437 -0.388378
0.489372 0.019355 -0.181695
-0.4485 0.190275 0.392165
-0.381715 0.625382 0.392163
-0.4894 -0.404735 -0.144689
-0.122405 0.689716 0.405627
-0.209472 -0.704007 0.156351
0.399871 0.251403 -0.520634
-0.4894 0.0444688 0.46046
0.489372 -0.0208224 -0.513044
0.159158 -0.456628 0.466187
0.489372 0.584276 -0.0445644
0.0505725 0.0212849 -0.520634
0.238973 0.697117 -0.236051
0.096301 -0.704007 0.37324
0.361773 0.697117 -0.514606
-0.228314 0.658373 -0.520634
-0.4894 0.67168 0.0297606
-0.00119545 0.697117 0.264875
-0.440303 0.687854 0.392162
-0.307132 0.352397 -0.520634
0.489372 0.641875 -0.490132
-0.4894 0.350493 0.346607
-0.103049 0.591589 0.392164
0.489372 -0.182437 -0.45023
-0.4894 -0.13242 0.0733429
-0.4894 -0.164451 -0.0935217
0.489372 0.52698 -0.33838
-0.215692 -0.406966 -0.520634
0.253213 -0.704007 -0.46294
-0.4894 -0.362245 0.32002
-0.431965 -0.242296 -0.520634
0.489372 0.376535 0.113599
0.330359 0.602361 0.556061
-0.380682 0.618776 0.533466
-0.308226 0.697117 0.308157
-0.468296 -0.0162022 0.466181
-0.393368 -0.110533 0.466182
0.464251 0.176752 -0.520634
-0.418857 0.147786 -0.520634
0.213282 -0.704007 -0.314414
0.489372 0.112307 -0.225616
0.489372 0.401464 -0.0997036
-0.4894 0.670034 -0.375776
0.489372 0.377012 0.0214451
-0.4894 0.619009 -0.392637
-0.4894 0.413578 0.151895
0.0910558 -0.429601 0.466187
-0.4894 -0.498918 0.127656
-0.232898 0.184624 -0.520634
0.454622 0.245638 0.392164
-0.4894 0.329501 0.130158
0.0601438 -0.565442 0.342827
0.0477946 0.448126 0.46618
-0.265478 -0.43893 -0.520634
0.0734411 0.288346 -0.520634
0.383121 0.45879 -0.520634
-0.127274 -0.704007 -0.0866274
-0.4894 -0.471822 0.349551
-0.0292949 -0.704007 0.10787
0.489372 0.0130424 -0.00474846
0.0992703 -0.704007 -0.14297
0.428227 -0.704007 -0.164683
0.489372 0.264559 0.0473493
-0.434714 0.697117 0.0838315
0.489372 0.383255 -0.471639
-0.36073 0.201464 0.466181
-0.134577 -0.704007 0.172093
0.489372 0.31895 0.204784
-0.4894 0.115868 0.234426
-0.00703687 0.651039 0.466177
-0.452184 -0.365071 0.392165
0.20135 -0.559244 0.466187
0.489372 0.209786 0.269533
0.45696 0.496959 0.392164
-0.4894 -0.167549 0.323433
0.232436 -0.656244 0.401635
-0.4894 -0.147901 -0.346488
-0.4894 -0.389642 -0.426576
0.0861576 -0.169873 0.466184
-0.336531 0.423123 0.466181
0.208577 0.454371 -0.520634
-0.379664 0.51709 -0.520634
-0.4894 -0.277624 0.328223
0.343927 -0.237146 -0.520634
-0.367213 -0.422955 0.466184
-0.418231 0.549552 -0.520634
0.044809 -0.524707 0.466187
0.489372 -0.35563 -0.0784398
-0.4894 0.530349 -0.209852
-0.271976 -0.494785 -0.520634
-0.4894 0.466987 0.444446
0.186889 0.697117 -0.379966
-0.149392 -0.372976 0.466185
-0.377576 -0.704007 -0.394351
-0.206692 -0.704007 -0.328886
0.188372 -0.563665 -0.520634
0.484368 0.124719 -0.520634
0.115315 0.531793 0.46618
-0.4894 0.6591 0.174072
0.489372 -0.174598 0.341607
-0.4894 0.0640441 -0.00953795
0.489372 0.584288 -0.204087
0.0620592 -0.329672 0.466186
0.375269 -0.704007 -0.0874351
-0.4894 0.228504 -0.149925
0.258822 0.206799 0.466182
-0.208802 -0.648886 0.342827
0.294947 0.542347 0.46618
0.446505 0.657359 0.466176
-0.4894 0.439691 0.216005
-0.185147 -0.478486 0.466185
0.489372 0.185296 -0.45579
0.340703 -0.615805 0.387703
-0.4894 0.338181 0.0577956
-0.317686 -0.704007 -0.251987
0.163114 0.565211 0.46618
-0.285967 0.694951 0.465945
-0.4894 -0.601083 0.147272
0.0788412 0.697117 -0.307992
0.489372 -0.0796117 -0.111992
0.489372 0.287558 0.249025
0.489372 0.483153 -0.476912
-0.4894 0.501479 -0.297705
-0.4894 0.376514 -0.117467
0.330762 0.697117 0.0222567
0.170402 0.304477 -0.520634
-0.4894 0.643308 0.372111
0.103025 0.374754 0.466181
-0.4894 0.257343 -0.474484
-0.47185 -0.583171 0.342827
0.273287 -0.551429 -0.520634
-0.394064 0.697117 -0.497506
0.451277 0.366498 0.392165
-0.199805 0.697117 -0.266937
-0.237795 -0.562314 0.461977
-0.295208 -0.704007 -0.0266459
-0.146815 0.697117 -0.0255064
0.381222 0.697117 -0.405254
-0.4894 0.144208 -0.0804552
0.127027 -0.10287 -0.520634
-0.0402527 -0.442893 -0.520634
-0.0295689 -0.703158 -0.520634
0.0560803 -0.670066 -0.520634
0.489372 -0.122589 -0.439526
-0.194066 0.00455867 0.466182
-0.463239 -0.0964705 -0.520634
-0.4894 0.477275 -0.0680877
-0.31876 -0.0684769 0.466182
-0.435476 0.602518 0.500506
-0.0662761 -0.704007 0.257959
-0.4894 -0.383477 0.121444
-0.266661 0.188556 0.466181
-0.0477076 -0.618232 0.342827
-0.447658 0.366968 0.466181
0.198573 0.697117 0.0403079
0.439406 -0.704007 -0.312979
0.489372 0.428192 -0.383964
0.156211 -0.704007 0.0433897
0.489372 -0.702483 0.10434
0.489372 0.487136 -0.237408
-0.4894 0.675106 -0.102
0.33831 0.697117 -0.419431
0.0165163 0.697117 0.00921037
0.219611 0.556664 -0.520634
