ply
format ascii 1.0
comment Created by Open3D
element vertex 1674
property double x
property double y
property double z
end_header
-0.192078 -0.608292 0.326468
0.221716 0.364887 -0.537168
-0.456606 0.446727 -0.43277
0.130783 -0.714583 0.00666078
-0.456606 0.142524 0.44333
-0.199876 -0.236851 0.361634
-0.195716 0.242965 0.361634
0.0476864 -0.64043 0.269971
-0.456606 0.383025 0.0172941
-0.285018 -0.70551 -0.537168
0.461034 0.138228 -0.284079
0.225952 0.342298 0.361634
-0.273174 0.590828 0.395874
0.275369 -0.54781 -0.537168
0.461034 0.528783 -0.29896
0.387447 -0.714583 0.00378365
0.434586 0.590828 0.338906
-0.367581 -0.714583 0.0808962
-0.0172167 -0.0849128 0.450255
0.461034 -0.332381 -0.297984
0.46012 0.590828 0.0247198
0.0694779 0.590828 0.293138
-0.456606 0.103665 -0.0500303
0.415746 -0.714583 -0.286613
-0.287979 0.56008 0.00613965
-0.114978 0.590828 -0.348723
0.397138 0.17714 0.361634
0.0813922 0.56008 0.0450731
-0.349931 -0.50526 0.450255
-0.0287424 -0.714583 -0.14792
0.461034 -0.242926 0.346834
0.461034 -0.0706079 -0.013698
0.461034 0.328594 -0.426361
-0.456606 0.153576 -0.396686
-0.237595 -0.714583 -0.0982044
0.461034 -0.528047 -0.38134
0.461034 -0.0551209 -0.447241
-0.456606 -0.074648 0.448685
0.259532 -0.00173456 0.361634
-0.456606 -0.506121 -0.282952
-0.456606 -0.312566 -0.515658
0.461034 -0.658019 0.301329
-0.260635 0.033659 -0.537168
0.461034 -0.314913 -0.0955942
0.461034 0.140411 -0.0821255
-0.456606 0.391887 0.251775
0.266253 -0.380681 0.361634
0.00760081 0.303626 0.361634
0.461034 -0.0688547 0.212522
0.103352 0.590828 -0.200639
-0.0153555 0.590828 -0.52597
0.282191 -0.714583 -0.440232
-0.456606 -0.351329 -0.0977459
0.2838 0.587189 -0.537168
0.250589 0.0805739 -0.537168
-0.129311 0.179494 -0.537168
-0.455194 0.590828 0.448562
-0.0928856 0.0874022 0.361634
-0.00351462 -0.248332 0.361634
-0.13964 -0.578648 -0.537168
0.078743 -0.0526224 -0.537168
-0.00113864 -0.714583 -0.330127
-0.213865 -0.418938 0.361634
-0.456606 0.560964 -0.061262
0.0338409 -0.60524 0.449639
-0.277906 -0.229988 -0.537168
-0.257737 0.411034 -0.537168
-0.43103 -0.714583 -0.155251
0.0965651 0.438571 0.459796
-0.273056 0.404989 0.361634
0.280679 -0.283902 -0.537168
0.303795 0.590828 -0.341901
-0.45559 0.586247 -0.537168
-0.456606 -0.546976 0.100557
-0.456606 -0.0257939 0.0669499
-0.456606 -0.684142 -0.506506
0.251851 0.157033 0.450255
0.461034 -0.396601 0.27347
-0.310568 -0.714583 0.261933
0.11592 -0.46023 0.361634
0.380398 -0.593959 0.450255
0.0140278 0.590828 0.465301
0.267208 -0.714583 -0.114
-0.314317 0.56008 -0.376855
-0.0538731 -0.267918 -0.537168
-0.456606 -0.137423 -0.363994
-0.442228 0.0578945 -0.537168
0.33131 -0.254671 0.450255
0.142951 -0.603517 -0.424079
0.461034 0.253872 0.0391682
-0.456606 -0.157062 -0.169954
0.456478 0.590828 -0.141207
-0.216308 0.590828 -0.205785
-0.456606 0.4366 -0.268586
-0.347119 -0.163961 0.361634
-0.456606 -0.230775 0.222632
-0.0206975 -0.46664 -0.537168
-0.382342 0.275477 0.361634
-0.456606 -0.463092 0.336126
-0.456606 0.295195 -0.51344
0.461034 0.313061 0.291129
0.409044 -0.185387 -0.537168
0.122364 0.489204 -0.525263
-0.31042 0.132131 0.361634
-0.084443 0.590828 0.0430785
0.432986 -0.512585 -0.537168
0.135006 -0.330349 0.450255
-0.112324 -0.714583 -0.453416
0.461034 -0.698486 0.148679
-0.297055 0.590828 0.235955
0.353354 0.277695 -0.537168
0.461034 -0.42777 0.0211363
0.334953 0.470585 0.361634
-0.116749 0.590828 0.375361
0.461034 -0.198932 -0.381813
0.138757 -0.063135 0.450255
0.425053 0.56008 0.177393
0.247737 0.56008 0.0067888
-0.245251 -0.606532 -0.423622
-0.0876207 -0.714583 0.251948
-0.456606 0.0929458 0.294857
0.127433 -0.714583 0.161017
0.461034 0.433954 0.00398157
-0.14036 -0.0911873 0.361634
0.362335 -0.128491 0.361634
0.216555 0.56008 0.310887
-0.456606 0.308264 -0.359752
0.0931105 -0.201888 -0.537168
0.461034 -0.688613 -0.124156
0.461034 0.287362 -0.283243
0.461034 -0.585499 -0.0013006
-0.118558 -0.571868 0.450255
-0.456606 0.251167 -0.0597803
-0.323357 -0.714583 -0.265319
-0.0590527 0.207198 0.450255
0.138575 0.264603 0.450255
0.121458 -0.714583 -0.13942
-0.305662 -0.460985 -0.537168
0.173269 -0.713257 -0.537168
-0.0586351 0.0344371 -0.537168
0.20866 -0.608292 0.295026
-0.456606 0.133575 -0.192201
0.461034 0.0148374 -0.155123
0.333009 0.277359 0.450255
0.069881 0.324279 -0.537168
-0.456606 0.535964 0.315111
-0.310939 -0.360551 0.450255
-0.45457 0.590828 -0.369201
0.461034 0.0560034 0.318201
-0.456606 -0.581683 -0.404432
-0.456606 0.398936 -0.128412
-0.456606 -0.424472 -0.39943
0.461034 -0.174789 -0.116773
-0.365078 -0.0104404 0.361634
0.00441952 0.56008 0.171626
-0.130648 0.510369 -0.513777
0.38433 0.56008 0.466255
-0.108414 -0.316447 0.450255
-0.456606 -0.595638 0.450087
0.114323 -0.502719 -0.537168
-0.455516 -0.714583 0.190322
0.0286042 0.00903859 0.361634
0.327379 0.451501 -0.535365
0.226927 -0.420073 -0.537168
0.301418 -0.518132 0.361634
-0.184826 0.352953 0.450255
-0.456606 -0.0201731 -0.104748
-0.0342679 0.56008 -0.238395
0.210188 0.208641 -0.537168
0.461034 0.457028 0.268438
0.249075 -0.714583 0.069601
-0.373736 0.478074 -0.537168
-0.34718 -0.714583 -0.418916
0.234662 0.435931 0.456849
-0.20334 0.143032 0.450255
-0.0127017 -0.714583 -0.0159151
0.40808 0.590828 -0.440431
0.461034 -0.588548 -0.263209
0.360981 0.0593472 0.450255
-0.456606 0.504602 0.0695756
-0.456606 -0.414589 0.0182111
0.461034 0.188678 0.233937
-0.226491 -0.137405 0.450255
-0.456606 -0.685735 -0.029086
0.461034 0.188467 -0.405736
0.461034 -0.68767 -0.407886
0.350856 -0.603517 -0.425795
-0.252197 -0.714583 0.142388
0.0704384 -0.187254 0.450255
0.452042 -0.162408 0.450255
0.381188 -0.00478419 -0.537168
0.461034 -0.39874 -0.410194
0.00432783 0.437904 0.361634
0.0120268 0.56008 -0.366182
-0.456606 0.024176 -0.412365
-0.456606 0.102518 0.0871262
-0.03339 -0.530146 0.361634
0.461034 -0.529359 0.310328
0.0549242 0.56008 -0.0854194
0.461034 -0.410257 -0.195897
-0.324653 -0.608292 0.332199
-0.0181581 -0.629224 -0.423622
0.146015 0.590828 0.189066
-0.261908 -0.103455 -0.537168
-0.212151 0.49872 0.458831
-0.456606 -0.158194 0.118552
0.00607009 -0.714583 0.124055
-0.292167 0.285366 0.450255
-0.456606 -0.459916 -0.165154
-0.355659 -0.603517 -0.515818
0.461034 -0.39591 0.147803
-0.456606 0.269233 0.0775723
-0.193266 0.303434 -0.537168
0.280379 -0.0877509 0.450255
-0.350918 0.506355 0.448636
-0.456606 -0.593481 -0.192582
0.461034 -0.00479781 -0.316468
0.176506 0.0587834 0.450255
0.112486 -0.714583 -0.378263
0.218442 0.56008 -0.258262
0.461034 0.249416 0.436987
-0.440531 -0.411449 0.450255
0.328468 -0.626467 0.308406
0.437856 -0.313869 0.450255
-0.456606 -0.532359 0.235898
0.461034 0.394447 -0.52878
0.461034 -0.206527 0.230732
-0.456606 -0.279112 0.109638
-0.118615 -0.192701 0.450255
-0.456606 -0.323914 0.3175
-0.2941 0.56008 -0.118639
0.461034 0.406482 -0.302221
0.461034 0.484631 -0.419154
0.377828 0.590828 -0.232149
0.350871 -0.648794 -0.537168
-0.329279 -0.343136 -0.537168
0.461034 -0.220953 -0.0058637
0.356339 0.56008 0.0789324
0.328544 0.56008 0.26804
-0.314169 -0.240838 0.450255
-0.324312 0.590828 0.115643
-0.104898 -0.00441559 0.450255
-0.24785 -0.566374 0.450255
-0.160225 -0.213462 -0.537168
0.461034 -0.128638 0.110009
-0.257451 -0.714583 0.0187468
0.218978 -0.443633 0.450255
-0.171684 0.56008 -0.0308809
-0.145772 0.44739 0.361634
-0.456606 -0.193726 -0.473564
-0.0490712 0.56008 0.283675
0.159899 -0.714583 0.27917
0.360765 -0.413493 -0.537168
-0.441695 0.17498 -0.537168
-0.0237045 0.25417 -0.537168
0.186137 0.56008 -0.0939282
-0.197045 0.56008 -0.431808
0.461034 0.464298 -0.158247
0.461034 0.0731908 -0.419938
-0.128345 -0.714583 -0.0261299
0.461034 0.0481364 0.0299875
0.461034 0.211849 -0.195144
-0.456606 -0.200358 0.357766
-0.00270477 0.106534 0.450255
0.0347534 -0.356311 0.361634
0.104058 -0.584278 0.361634
0.080675 -0.115553 0.361634
0.373703 0.56008 -0.0436787
0.461034 0.487522 0.416347
0.456985 0.121413 0.450255
0.461034 -0.247844 -0.20467
-0.16792 -0.714583 -0.188102
-0.210678 0.56008 0.305995
-0.326499 -0.438451 0.361634
0.236036 0.56008 -0.438106
0.0645007 -0.714583 -0.237869
0.169197 0.470776 0.361634
-0.352029 0.0760462 0.450255
-0.0824656 -0.385944 0.361634
0.335319 -0.388494 0.450255
0.290148 -0.714583 -0.243602
0.225235 0.229712 0.361634
0.31741 0.590828 0.381197
0.461034 0.255685 -0.513555
-0.203007 0.0629652 0.361634
-0.456606 0.270762 0.445689
-0.456606 0.0458558 0.193
-0.199517 -0.714583 0.245229
0.461034 -0.449145 -0.302145
-0.456606 0.403638 0.140676
0.172144 0.590828 -0.536876
-0.0773569 -0.608292 0.284595
-0.2099 0.56008 0.0855446
0.461034 0.28282 0.168242
-0.456606 0.259853 0.281058
0.131228 0.590828 0.412465
0.1168 0.35648 0.361634
-0.338918 -0.714583 -0.0551845
-0.456606 0.516347 -0.19292
-0.161493 -0.456906 0.450255
0.400782 -0.366566 0.361634
-0.0665837 0.316367 0.450255
-0.32569 -0.0605747 0.450255
-0.336567 -0.302337 0.361634
0.386165 -0.0101699 0.361634
0.461034 -0.11555 0.317517
-0.456606 -0.284247 -0.410774
-0.240159 0.148232 -0.537168
0.358323 0.33419 0.361634
-0.400557 0.590828 0.0263214
-0.218445 0.56008 -0.309442
0.395669 -0.714583 0.233029
0.0745285 -0.504617 0.450255
-0.140945 -0.513853 0.361634
-0.248344 -0.0809979 0.361634
0.122274 0.0453936 -0.537168
0.193494 -0.0884917 0.361634
-0.456606 0.0251375 0.409611
-0.171841 -0.0291813 -0.537168
0.461034 -0.276545 -0.454961
-0.351064 0.56008 0.322486
-0.351066 0.329134 -0.537168
0.211055 -0.199303 -0.537168
0.0164383 0.480179 -0.527681
-0.388822 0.458705 0.361634
0.461034 -0.440208 -0.0843063
-0.364617 0.590828 -0.465152
-0.456606 -0.610923 -0.298814
0.178284 0.56008 0.0878552
-0.456606 -0.245464 -0.0964404
-0.120795 -0.603517 -0.427017
-0.211417 -0.714583 -0.416889
0.461034 0.500526 0.0858397
-0.456606 0.220523 -0.301166
-0.456606 -0.392856 -0.245997
0.368593 0.430806 0.452787
0.29148 0.0982289 0.361634
-0.223789 -0.302093 0.450255
0.461034 -0.310304 0.208213
0.365851 -0.714583 -0.158842
0.139894 0.017069 0.361634
-0.45227 0.356161 0.361634
-0.456606 -0.661434 0.093959
0.461034 -0.612128 -0.479852
0.294754 -0.213604 0.361634
0.461034 0.271761 -0.0630478
-0.4078 -0.196586 0.450255
-0.253953 -0.55061 -0.537168
-0.456606 -0.204984 -0.261466
-0.00705452 0.197948 0.361634
0.248016 -0.61073 -0.423622
-0.410627 -0.40646 -0.537168
-0.362003 0.209871 0.450255
0.0518555 0.330565 0.450255
0.336021 -0.714583 0.123608
0.317754 0.182193 -0.537168
0.0153933 -0.310239 0.450255
0.461034 -0.0213852 0.122568
-0.430077 0.392784 -0.537168
0.112617 -0.286518 0.361634
-0.456606 -0.283781 0.00446457
0.0521951 0.550235 -0.4586
-0.456606 0.119279 -0.300719
0.224556 -0.232037 0.450255
-0.0766169 -0.714583 -0.262746
-0.0968885 0.263743 0.361634
0.350212 -0.497832 0.450255
-0.0282104 -0.366265 -0.537168
-0.167567 -0.707102 -0.537168
-0.358598 0.11857 -0.537168
0.461034 0.148543 0.0291803
-0.162984 0.0708085 -0.537168
0.461034 -0.100532 -0.345428
-0.150742 0.25232 0.450255
-0.104883 -0.267507 0.361634
-0.456606 0.461885 -0.0492641
-0.456606 0.296907 0.179885
-0.0814225 0.550652 0.461653
-0.39698 -0.54689 0.361634
-0.456606 -0.0658423 -0.454247
-0.456606 0.179107 0.0143916
0.164366 -0.614474 -0.537168
0.189441 -0.529753 0.361634
0.177809 -0.0525661 -0.537168
-0.0270174 -0.127738 0.361634
-0.303236 0.408524 0.455761
0.052422 0.216153 0.450255
0.461034 -0.101192 -0.534649
0.0627757 0.519943 0.361634
0.126806 0.56008 -0.294916
0.355686 -0.714583 -0.374716
0.431455 0.411209 0.361634
0.029562 -0.714583 -0.433996
0.461034 0.114446 -0.176532
-0.00866241 -0.146637 -0.537168
-0.456606 0.489876 0.228947
0.461034 -0.550107 0.417003
-0.0568193 -0.692552 -0.537168
-0.456606 0.210919 0.369244
-0.256328 -0.527733 0.361634
0.238571 0.501528 -0.537168
0.244876 -0.348095 0.450255
-0.0769038 0.590828 -0.437731
-0.0676333 0.364282 0.361634
0.461034 0.522335 -0.0598929
0.461034 -0.618172 0.213587
-0.0439806 -0.568055 -0.537168
0.392456 -0.284604 -0.537168
-0.456606 -0.0166241 0.319794
0.191078 0.349632 0.450255
0.365766 -0.0450332 0.450255
0.283219 -0.60524 0.396073
0.461034 -0.332937 0.0316344
0.10704 0.248703 0.361634
-0.00907369 0.56008 -0.0146858
-0.456606 -0.619406 0.188244
0.267154 -0.697779 -0.537168
-0.290642 0.236471 0.361634
-0.342396 -0.0149427 -0.537168
0.326559 0.240869 0.361634
0.169765 -0.382012 0.361634
0.151842 0.150467 0.450255
0.461034 0.0258647 0.218073
-0.0716308 -0.00638028 0.361634
0.186439 -0.292145 -0.537168
-0.456606 -0.109283 -0.0651741
-0.028747 -0.222019 0.450255
-0.0115695 -0.714583 0.308078
-0.368029 0.590828 0.40956
-0.371336 -0.221022 -0.537168
-0.120819 0.590828 -0.193264
-0.456606 -0.306939 -0.180183
0.461034 -0.189408 -0.28867
0.267746 0.0271594 0.450255
0.00825904 0.481835 0.459825
0.035359 -0.714583 0.214605
-0.00070285 0.0103478 0.450255
0.391148 -0.714583 -0.463573
0.369442 0.186335 0.450255
0.288057 -0.00919568 -0.537168
0.461034 -0.46599 0.209291
0.0404151 -0.27865 -0.537168
0.000202327 0.590828 -0.157579
0.297897 -0.714583 -0.0216158
-0.233294 -0.31165 -0.537168
0.0221653 -0.448465 0.361634
-0.456606 0.535209 -0.294689
-0.430367 -0.111264 0.361634
0.396519 0.590828 -0.347431
0.406062 -0.459284 0.361634
-0.374366 -0.620174 -0.423622
-0.245009 -0.331537 0.361634
-0.343263 -0.60524 0.422903
-0.0212178 0.590828 0.379656
-0.209894 0.334421 0.361634
-0.393505 -0.714583 0.30257
-0.0373829 0.162971 -0.537168
0.461034 0.03291 -0.51067
0.288643 0.358122 0.450255
0.169128 -0.158739 0.450255
0.353556 -0.150443 0.450255
0.375293 0.590828 -0.532904
0.133123 0.399099 -0.537168
-0.34143 -0.714583 -0.173276
-0.456606 -0.415154 0.258384
0.0279959 0.0631785 -0.537168
-0.0765298 0.56008 0.130186
0.154884 0.590828 0.00184346
-0.396215 0.102846 0.361634
0.390456 -0.562475 0.361634
-0.0612371 0.500284 0.361634
0.264669 -0.714583 -0.351499
-0.298293 0.56008 -0.242512
-0.183656 0.153396 0.361634
0.461034 0.34124 0.0618584
-0.291558 0.514806 -0.509341
-0.282054 -0.445802 0.450255
-0.0958753 0.102342 0.450255
0.377566 -0.279695 0.361634
-0.456606 0.533998 -0.454203
0.0767093 0.0646439 0.450255
-0.456606 -0.607747 0.0153585
-0.398244 0.590828 -0.1225
0.164209 0.285515 -0.537168
0.253797 0.432678 0.361634
-0.178079 0.590828 -0.114732
-0.104757 -0.103418 0.450255
-0.0798264 -0.60524 0.375645
-0.353044 0.376106 0.388785
-2.82796e-05 0.0971785 0.361634
0.461034 -0.478876 -0.459631
0.461034 0.58405 0.427941
-0.0342579 -0.537452 0.450255
-0.177122 -0.484829 -0.537168
-0.456606 -0.47995 0.158913
0.210744 0.56008 -0.352933
0.461034 -0.0753998 -0.15659
-0.456606 -0.0692025 -0.18237
0.0527443 -0.566461 -0.537168
-0.456606 0.0265965 -0.00651558
0.32901 -0.714583 0.30018
-0.456606 -0.0545662 -0.333194
0.159379 0.13631 -0.537168
0.461034 -0.651561 0.0573298
-0.456606 -0.116876 -0.260678
-0.282508 0.0252056 0.361634
-0.165786 0.575073 0.466952
0.391162 0.089435 0.361634
-0.404776 -0.396877 0.361634
-0.11369 -0.714583 -0.364385
0.413305 0.266228 0.361634
0.0855967 0.56842 -0.537168
0.214805 -0.714583 0.167411
0.461034 0.575548 0.257222
-0.234065 0.590828 0.175767
0.204472 0.0938283 0.361634
0.193772 -0.714583 -0.187878
0.461034 -0.173505 -0.468378
0.225547 0.261247 0.450255
-0.276523 0.590828 -0.452155
-0.456606 0.491915 0.404802
0.461034 0.0192616 -0.051936
-0.270801 0.511123 0.361634
0.174019 -0.714583 -0.43944
-0.381859 0.590828 -0.321872
0.365348 -0.110534 -0.537168
0.00265366 0.590828 0.0906543
0.37672 0.376991 -0.537168
0.192909 -0.714583 -0.0699451
0.0479107 -0.390226 0.450255
-0.456606 -0.501078 0.0274226
-0.456606 0.230932 -0.455852
-0.456606 0.33899 -0.27925
0.18105 0.56008 -0.180369
-0.456606 -0.459903 -0.0548386
-0.456606 0.20858 -0.150216
-0.37632 -0.714583 -0.503784
0.45102 -0.714583 -0.205361
-0.101748 0.590828 -0.521336
-0.0243555 -0.0440554 -0.537168
0.26647 -0.295106 0.361634
-0.456606 -0.598698 -0.501923
-0.147911 -0.31407 -0.537168
0.377107 0.56008 -0.146899
0.461034 -0.615526 -0.362633
-0.356137 0.56008 -0.0447663
-0.456606 0.17665 0.263936
-0.160466 -0.338247 0.361634
0.461034 -0.500203 -0.0229613
-0.456606 -0.486333 -0.457422
-0.40582 0.590828 0.265575
-0.345969 -0.714583 0.162704
-0.0113362 0.399596 0.46208
0.0781601 -0.714583 0.0727696
0.461034 0.36142 -0.0523854
-0.456606 -0.148475 0.202197
0.461034 0.14072 0.320733
0.461034 0.261199 -0.36317
0.168769 0.511096 0.460078
0.0722687 -0.714583 0.303878
0.358253 -0.565222 -0.537168
-0.175407 0.395286 -0.537168
0.461034 -0.510276 -0.233259
0.332481 0.56008 -0.421444
-0.208913 -0.625725 -0.537168
0.368847 0.0923947 -0.537168
-0.12071 -0.185407 0.361634
-0.099437 -0.438535 -0.537168
0.0420466 0.590828 -0.294671
-0.298336 0.139637 0.450255
0.311404 0.5215 0.455598
-0.208834 0.49501 -0.537168
-0.456606 0.47897 -0.532354
0.334928 0.526809 -0.497337
-0.131637 -0.714583 -0.113644
-0.424655 -0.0233816 -0.537168
-0.262536 -0.714583 -0.197992
-0.366673 -0.642807 0.269971
-0.171582 -0.0532225 0.450255
0.0907545 -0.714583 -0.515882
-0.155656 -0.714583 0.175234
0.0217241 -0.60524 0.367976
0.0549732 -0.603517 -0.451804
0.268291 -0.122751 0.361634
-0.276421 -0.631998 0.269971
-0.456606 -0.675039 -0.247408
-0.456606 -0.138448 0.289007
0.234408 -0.697555 0.308406
0.461034 0.190325 0.127725
0.461034 -0.0372743 0.287881
0.461034 0.04814 -0.254265
-0.216412 -0.156168 0.361634
-0.456606 -0.648467 -0.101724
-0.290467 -0.714583 -0.33976
0.0808593 -0.196913 0.361634
-0.235144 0.217895 0.450255
0.412839 -0.714583 0.0851869
-0.456606 -0.306901 0.186056
0.116442 0.215649 -0.537168
0.137782 -0.602221 0.450255
0.253399 0.277235 -0.537168
-0.286221 -0.217297 0.361634
-0.456606 -0.0963187 0.0272438
0.319535 -0.212914 -0.537168
-0.410169 0.56008 0.105654
-0.230965 -0.383219 0.450255
0.390181 0.334349 0.450255
-0.456606 -0.365949 0.0826303
-0.456606 0.415071 -0.346373
0.461034 -0.436953 -0.536703
-0.456606 0.0198544 -0.174703
-0.335461 -0.149032 -0.537168
-0.320031 -0.160622 0.450255
0.349994 0.590828 0.185522
0.304263 0.56008 -0.242488
0.075401 0.526017 0.461772
-0.456606 0.440167 0.322633
-0.456606 -0.0561823 0.159361
-0.155153 -0.692627 0.308406
0.455226 -0.714583 -0.0389231
-0.456606 -0.695183 -0.427243
-0.288179 0.318181 0.361634
0.121445 -0.248768 0.450255
-0.456606 -0.516241 0.442064
0.461034 0.417946 -0.223204
0.461034 0.468147 0.176402
-0.456606 -0.391054 -0.327134
-0.202483 0.224365 -0.537168
-0.160171 0.438521 0.460176
-0.121381 0.590828 0.271317
-0.365995 0.590828 0.196452
0.390373 0.528905 0.361634
0.456558 0.590828 -0.241493
0.172903 0.166485 0.361634
0.146033 -0.412838 0.450255
0.204744 -0.60524 0.380534
0.329521 -0.428134 0.361634
0.399062 -0.608292 0.277804
-0.456606 0.11044 -0.462923
0.461034 0.106162 0.24971
-0.376978 0.28739 0.450255
0.302764 0.590828 -0.0593862
0.137988 -0.63953 0.269971
0.0420656 -0.714583 -0.072204
-0.456606 0.0425628 -0.317227
0.461034 0.359534 0.228036
0.461034 -0.310505 0.28651
0.461034 -0.335225 -0.173784
0.391632 0.207563 -0.537168
-0.39542 -0.00125428 0.450255
-0.456606 0.306084 -0.136361
0.266953 -0.513447 0.450255
0.461034 0.0459275 0.420149
-0.103909 0.56008 -0.273175
-0.371161 0.180812 0.361634
-0.40841 -0.27239 0.361634
0.412358 0.455496 -0.537168
0.461034 0.500348 0.339792
0.212459 0.56008 0.214836
-0.0528517 0.531815 -0.492332
0.33767 -0.490414 -0.537168
0.461034 -0.58754 -0.0899952
-0.249405 -0.693622 0.308406
0.261058 0.590828 0.0765364
-0.387734 -0.351654 0.450255
0.461034 -0.235358 0.423706
0.0400846 0.372376 0.381448
0.231031 0.56008 0.386741
-0.25075 0.565054 0.466952
-0.0994479 0.268875 -0.537168
0.202572 -0.522342 -0.537168
0.461034 0.564954 -0.380785
-0.456606 0.308996 -0.00419498
-0.347362 0.56008 -0.536961
0.127292 -0.112287 -0.537168
-0.114747 -0.396058 0.450255
-0.456606 0.233319 -0.37916
0.461034 -0.260654 -0.33627
0.0373917 0.393715 -0.537168
0.461034 0.440124 -0.0723937
0.2228 -0.443789 0.361634
0.209629 -0.0226626 0.450255
0.0118634 0.590828 0.241328
-0.42911 0.590828 0.363522
0.365955 -0.714583 -0.082496
0.0428573 -0.530534 0.361634
0.278403 0.175178 0.361634
0.461034 0.517706 -0.212542
0.428335 -0.168147 0.361634
-0.456606 -0.240688 -0.344926
-0.456606 0.371431 -0.442896
-0.455743 0.590828 -0.242282
-0.21461 -0.212332 0.450255
0.251171 -0.161077 0.450255
0.461034 -0.144115 0.184103
-0.175014 -0.714583 0.0398672
0.461034 -0.172992 -0.194488
-0.242877 0.56008 -0.0631232
0.461034 0.584509 0.0998132
0.461034 -0.452487 0.0923176
-0.36663 -0.714583 -0.326986
0.461034 -0.59492 -0.180279
-0.188633 0.514518 0.361634
0.156852 0.543836 -0.48031
0.12118 0.590828 -0.0652213
0.461034 -0.0576331 0.377865
0.461034 -0.535441 0.0542829
0.139274 0.590828 0.266472
0.173738 -0.503914 0.450255
0.21446 0.015255 -0.537168
0.131963 -0.43021 -0.537168
-0.251106 -0.384091 -0.537168
0.461034 -0.149361 0.0384128
-0.0972808 0.56008 -0.0351735
0.461034 -0.000339113 -0.396712
0.334618 -0.343747 -0.537168
0.461034 0.341525 -0.353009
-0.355079 -0.516714 -0.537168
0.0820387 0.56008 0.211608
0.238637 -0.603517 -0.504279
0.0891512 0.590828 0.112333
-0.171943 -0.106386 -0.537168
-0.456606 -0.36004 -0.436477
0.0970608 -0.714583 -0.304619
0.0598305 -0.113828 0.450255
-0.299105 -0.658348 -0.423622
-0.388059 -0.714583 0.00996917
-0.409199 0.243863 -0.537168
0.461034 -0.625754 0.136359
-0.00772455 -0.714583 -0.2229
0.461034 -0.0234588 -0.236775
0.44556 0.590828 -0.51075
0.192839 -0.297243 0.361634
0.461034 0.398147 -0.450565
0.402122 -0.711621 0.308406
-0.456606 0.114599 0.219313
0.461034 0.424534 -0.376712
-0.323067 0.578254 0.466952
-0.0364478 -0.714583 -0.401773
-0.200461 -0.60524 0.409817
-0.138452 0.177343 0.450255
0.204101 -0.714583 0.00927735
-0.456606 0.175548 0.110415
-0.0335316 -0.714583 0.0624104
-0.17327 0.590463 -0.537168
-0.111683 0.443681 -0.537168
-0.341249 0.412511 -0.537168
0.0782228 -0.0221369 0.450255
0.461034 -0.400355 0.38551
0.461034 0.10064 -0.352222
-0.456606 0.0286683 0.115557
-0.165158 0.590828 0.0368775
-0.0777137 0.56008 0.204709
-0.0888001 -0.19905 -0.537168
0.461034 0.298875 -0.187794
0.461034 -0.123795 -0.41443
-0.456606 -0.504078 -0.386819
0.108376 0.430983 0.361634
-0.456606 0.518194 -0.368046
-0.324863 -0.0708821 0.361634
-0.455648 -0.714583 0.265137
-0.176525 0.0436514 0.450255
-0.456606 0.0693241 -0.227505
0.461034 0.215681 -0.273788
-0.35696 -0.433304 0.450255
0.461034 -0.0418792 -0.0904028
0.418011 -0.6223 -0.537168
0.461034 -0.325085 0.357133
-0.456606 0.504684 0.158375
-0.15379 -0.631442 0.269971
0.335678 0.0412137 0.361634
0.461034 0.17949 0.407898
0.461034 0.232886 0.290626
-0.456606 0.115476 -0.120913
0.461034 -0.326102 0.130759
-0.0126327 -0.0497897 0.361634
0.0542515 0.590828 0.369268
-0.258203 0.0801935 0.450255
-0.456606 0.491296 -0.114624
-0.456606 -0.345834 0.385733
0.461034 -0.248163 -0.13302
-0.17237 -0.0270886 0.361634
-0.232641 0.419823 0.458361
0.345605 -0.714583 -0.300481
0.139669 0.541312 0.361634
0.461034 -0.15868 -0.0471623
-0.428912 -0.176893 -0.537168
0.0477727 -0.714583 -0.168519
0.461034 -0.021347 0.0453146
-0.262479 0.283178 -0.537168
0.461034 0.249587 -0.130612
-0.0820489 -0.474013 0.361634
-0.108693 0.373113 0.442427
0.00275353 -0.714583 -0.499832
-0.148695 -0.257042 0.450255
0.461034 -0.659273 -0.2567
-0.0160899 0.56008 -0.0916857
-0.115277 0.171348 0.361634
0.461034 0.34386 0.354723
-0.456606 0.334504 0.10462
0.460282 -0.264844 -0.537168
-0.0488624 -0.148064 0.450255
-0.456606 -0.203175 0.06411
0.122348 0.373261 0.429978
0.456598 -0.608292 0.351204
-0.304094 0.0244911 0.450255
-0.140666 0.346828 0.361634
0.338205 -0.0624731 0.361634
-0.391618 -0.288307 -0.537168
-0.456606 -0.375648 -0.16358
-0.267216 -0.714583 -0.469992
0.082025 0.590828 -0.352231
-0.0306554 0.56008 -0.310642
-0.39918 -0.714583 -0.253941
-0.210561 -0.1648 -0.537168
-0.456606 0.301922 -0.429465
0.0434647 0.56008 -0.219676
0.317468 0.56008 0.00175358
-0.385651 -0.714583 0.233175
0.369891 -0.714583 -0.233987
-0.456606 0.375336 -0.0627546
-0.425095 -0.714583 -0.0841447
-0.290663 -0.616692 -0.537168
0.461034 -0.380995 -0.0478005
-0.456606 -0.519817 -0.214753
-0.456606 -0.412037 -0.482638
0.394545 0.56008 0.244141
-0.19502 0.56008 0.224757
0.0010721 0.33297 -0.537168
0.27072 0.590828 0.245263
0.31291 0.349946 -0.537168
0.305323 0.373758 0.382059
-0.396277 -0.608292 0.329715
-0.456606 -0.548607 0.302993
-0.221324 -0.491319 0.450255
-0.456606 -0.708652 0.0437576
0.117299 -0.0571882 0.361634
-0.456606 0.540717 0.0109052
0.461034 0.342766 -0.2423
-0.232846 0.590828 -0.381621
-0.456606 0.36062 -0.185635
-0.137704 0.0322808 0.361634
-0.193595 -0.714583 0.106483
0.339317 0.124573 0.450255
0.118259 -0.284623 -0.537168
-0.456606 -0.603354 0.38201
0.46089 0.590828 -0.0587934
-0.0558823 -0.361049 0.450255
-0.10514 -0.644041 -0.537168
-0.456606 0.327053 0.29407
0.174121 0.402542 0.361634
-0.285364 0.56008 0.29588
0.461034 -0.457125 -0.374736
-0.303238 0.590828 -0.316877
0.412392 -0.0948043 0.450255
0.262961 0.505337 0.361634
0.0659162 -0.446993 -0.537168
0.421568 -0.634446 -0.423622
0.0518246 -0.714583 0.00998824
0.145966 -0.714583 0.0788452
-0.0370134 -0.60524 0.445652
0.109998 0.56008 -0.12526
0.335975 -0.714583 -0.503129
0.0852163 0.137465 0.450255
-0.183032 0.590828 0.360747
0.461034 -0.68544 0.239288
-4.2806e-05 0.259092 0.450255
0.231996 0.590828 -0.0545943
-0.146157 -0.418088 0.361634
-0.0782984 -0.509738 -0.537168
-0.210781 -0.714583 -0.0360913
-0.321169 -0.508522 0.361634
-0.456606 0.194052 -0.238942
-0.216849 0.293467 0.450255
-0.278987 0.505354 0.451757
-0.0546276 -0.714583 0.153536
-0.456606 0.134335 0.348114
-0.312676 -0.603517 -0.463865
0.461034 0.317195 0.421797
0.461034 -0.699133 -0.341489
0.461034 0.433173 0.0868293
-0.141674 0.56008 0.113069
-0.195197 -0.603517 -0.468586
-0.239102 -0.0300692 -0.537168
-0.367697 -0.287454 0.450255
-0.079998 -0.488169 0.450255
0.200718 0.44599 -0.536842
-0.456606 -0.12943 -0.493029
0.287878 0.590828 0.45064
0.368229 0.590828 0.328778
-0.456606 0.447144 -0.175107
0.338387 -0.714583 0.192905
-0.456606 0.0159704 0.253061
-0.456606 0.581099 -0.154003
-0.145919 0.512036 0.455812
0.293715 -0.425546 -0.537168
-0.456606 0.589795 0.0629824
-0.0804692 0.0977305 -0.537168
-0.264574 -0.6057 0.361634
-0.386527 -0.561273 0.450255
0.461034 0.320415 -0.496637
0.11002 -0.665522 -0.423622
-0.456606 0.10051 0.153959
0.145737 -0.14738 0.361634
0.176353 0.275234 0.361634
-0.456606 0.0875656 0.0220279
0.461034 -0.271637 -0.27035
0.461034 -0.531761 0.220581
0.286964 0.590828 0.310182
0.126269 -0.714583 -0.0692188
0.0373209 -0.378278 -0.537168
0.461034 0.246007 -0.447662
-0.403088 0.547653 0.450878
-0.0527001 0.56008 -0.381699
-0.456606 0.16616 -0.0777676
-0.0938734 -0.352758 -0.537168
-0.0863787 -0.714583 -0.197105
-0.456606 0.448742 0.0264167
-0.236478 -0.0667057 0.450255
0.461034 -0.453595 0.325082
-0.379813 -0.0986774 0.450255
-0.406414 0.56008 -0.4026
0.461034 0.520989 0.21669
-0.456606 -0.431982 0.0819866
0.398239 -0.261113 0.450255
-0.456606 -0.0510962 -0.0207896
-0.456606 -0.183642 -0.0735086
-0.369742 0.35911 0.450255
0.00243304 0.590828 -0.44372
-0.0782612 -0.681903 0.308406
-0.235305 0.56008 -0.150773
0.461034 0.469974 -0.329174
0.267613 0.291416 0.361634
0.461034 -0.126402 0.247423
0.299875 0.427639 0.456067
0.461034 0.146752 0.18337
-0.299089 -0.714583 0.0964785
0.335993 -0.35635 0.361634
0.229048 0.590828 -0.501295
-0.3443 0.0517099 0.361634
-0.456606 0.090046 0.401034
0.286818 0.231001 0.450255
0.372203 -0.334514 0.450255
-0.214082 0.433075 0.361634
-0.456606 -0.416326 -0.103806
-0.456606 0.0855982 -0.390291
0.461034 -0.478097 0.400666
0.120032 -0.603517 -0.49065
-0.456606 -0.223011 0.296713
-0.456606 -0.1371 0.415337
-0.050878 -0.303705 0.361634
0.399664 0.487878 0.451162
-0.299972 0.590828 -0.185319
-0.42763 0.200213 0.450255
0.0395144 0.239372 -0.537168
-0.413561 -0.632132 -0.537168
0.461034 0.184623 -0.12964
0.356731 -0.671994 -0.423622
0.461034 -0.513875 -0.299767
0.461034 -0.317638 -0.367034
0.461034 -0.39764 -0.485244
-0.456606 -0.236577 -0.204942
-0.108281 -0.0413399 -0.537168
-0.214673 -0.248411 -0.537168
0.09421 0.0628635 0.361634
0.199733 -0.657424 -0.423622
-0.172231 -0.356307 0.450255
0.461034 0.120788 -0.463617
-0.235112 0.590828 0.0347031
-0.134732 0.345218 -0.537168
-0.0117529 -0.615404 0.269971
0.203793 -0.354245 -0.537168
-0.456606 -0.0354358 0.381457
0.264305 0.436041 -0.537168
0.402385 0.56008 -0.291271
-0.456606 -0.0822699 0.0976297
0.461034 0.199619 -0.342441
0.409956 0.011243 0.450255
-0.415387 0.0858306 0.450255
0.461034 -0.0372553 -0.530767
-0.242138 0.127357 0.361634
0.331882 -0.603517 -0.486924
-0.41269 0.528822 -0.537168
-0.232242 -0.714583 -0.270331
0.461034 0.266743 0.236424
-0.00150362 0.532777 0.361634
0.461034 -0.400745 -0.344688
-0.0709235 -0.603517 -0.491415
-0.327006 0.474633 0.361634
-0.456606 0.333615 0.421197
0.398704 0.528689 -0.495457
0.461034 -0.109811 -0.102883
0.113966 -0.714583 0.234946
-0.24628 -0.487349 -0.537168
0.0294231 -0.200636 -0.537168
0.461034 -0.123152 0.400911
0.461034 -0.646808 -0.0666994
0.282084 -0.647011 0.269971
0.399674 -0.714583 0.153696
-0.456606 -0.634196 -0.449125
-0.456606 -0.266084 -0.471615
0.461034 -0.187801 0.134723
0.461034 -0.389193 -0.269776
-0.0859592 -0.665214 -0.423622
0.201485 -0.714583 -0.346242
0.461034 0.192795 -0.046416
0.461034 0.381128 0.30357
-0.132653 0.56008 -0.474687
-0.0841462 -0.714583 -0.0718435
-0.303952 -0.356492 0.361634
0.143348 -0.714583 -0.225962
0.40171 0.56008 0.0349591
0.457622 -0.573081 -0.537168
-0.14227 -0.60524 0.385207
-0.312635 0.56008 0.182406
-0.0694128 0.43766 0.361634
0.308552 -0.194739 0.450255
-0.263796 0.56008 0.118425
-0.456606 -0.45191 -0.531493
0.290582 -0.302695 0.450255
-0.157838 0.590828 -0.283588
0.314265 -0.714583 0.0645948
-0.148871 -0.659695 -0.423622
-0.350509 0.56008 0.0487928
-0.456606 -0.204422 -0.411591
-0.386576 -0.484927 0.361634
-0.456606 -0.217318 0.139691
0.0737777 0.310761 0.361634
-0.456606 0.273484 0.374124
0.0164928 -0.603517 -0.50136
-0.0614187 0.590828 -0.169175
0.0332753 0.000715868 -0.537168
-0.247467 0.352075 0.450255
-0.456606 -0.455028 -0.238454
0.380275 -0.432088 0.450255
-0.456606 -0.554197 -0.143825
-0.287639 -0.714583 -0.140654
-0.304442 0.149915 -0.537168
0.337065 0.590828 -0.475745
0.232491 0.150201 -0.537168
0.173214 0.425029 0.459973
-0.456606 0.0535638 -0.112707
0.185269 0.590828 0.355319
-0.206571 -0.490021 0.361634
0.461034 0.310975 0.00727725
0.188464 -0.603517 -0.466768
-0.291091 0.346358 -0.537168
0.461034 -0.378077 0.443634
0.400575 0.255973 0.450255
-0.456606 -0.338825 0.239484
0.461034 -0.541334 -0.442133
0.4606 -0.714583 -0.475394
-0.456606 0.409166 0.393866
-0.34572 0.56008 -0.156561
-0.385769 0.453627 0.446871
0.0663855 0.201701 0.361634
-0.456606 -0.63887 -0.380337
-0.166675 -0.532682 0.450255
0.301659 -0.440608 0.450255
-0.229059 -0.714583 -0.354947
-0.314739 -0.556318 0.450255
0.457946 -0.602303 0.450255
0.291306 -0.631723 -0.537168
0.307207 -0.714583 -0.178822
0.461034 0.104537 0.37101
0.461034 0.470111 -0.47937
-0.43945 -0.237929 -0.537168
-0.296312 0.590828 -0.0577284
0.230045 -0.714583 -0.473542
-0.417684 -0.714583 0.141376
0.337056 -0.0480338 -0.537168
0.461034 -0.276446 0.0565808
0.461034 -0.0841065 0.0672286
-0.0587585 -0.18065 0.361634
-0.380583 0.522653 0.361634
0.461034 -0.281548 -0.043725
0.0883095 -0.61095 0.308406
-0.328538 -0.714583 0.0256432
0.151314 0.56008 -0.238468
0.157827 -0.230168 -0.537168
-0.408158 -0.467407 0.450255
0.402789 0.37844 0.405018
0.366752 -0.659954 0.269971
0.349048 0.590828 -0.30039
-0.132053 0.56008 -0.399045
0.136074 -0.00163196 0.450255
0.186653 -0.0226862 0.361634
0.0244968 -0.508147 -0.537168
0.157974 0.571054 0.466952
-0.456606 -0.563789 0.162458
0.461034 0.0805303 -0.049906
0.329536 0.56008 0.136672
0.461034 -0.194861 0.308984
0.0515768 0.56008 -0.0225582
-0.456606 0.334176 0.228371
0.461034 -0.342957 -0.435162
-0.264955 -0.452411 0.361634
-0.456606 0.0410484 0.339835
0.105512 -0.659334 -0.537168
-0.248959 0.191944 0.361634
0.2367 0.56008 0.127483
0.461034 -0.663771 -0.00238281
0.461034 0.254189 0.100092
-0.0606996 0.139065 0.361634
-0.456606 -0.414934 0.387852
-0.291051 0.0863055 -0.537168
0.402314 0.590828 0.114247
-0.224155 0.532397 -0.49175
-0.456606 -0.613159 0.249721
-0.456606 -0.451635 -0.322577
-0.343254 0.0458013 -0.537168
0.371229 0.421907 0.361634
-0.456606 -0.661437 -0.169351
0.461034 0.0890982 -0.114362
-0.118901 -0.260873 -0.537168
0.461034 0.330291 0.130639
0.24792 0.590828 -0.185383
-0.0430083 0.474151 -0.537168
0.144373 -0.557404 -0.537168
0.461034 0.199174 0.0649498
0.461034 0.493363 0.0151424
0.183833 0.217518 0.450255
0.330898 -0.559297 0.450255
0.275201 -0.0627455 0.361634
0.00643143 -0.492834 0.450255
0.267287 -0.169553 -0.537168
-0.00379334 0.590828 0.309155
0.407775 0.471095 0.361634
0.250451 0.56008 -0.103064
-0.12873 0.521293 0.361634
0.298521 -0.656497 -0.423622
0.158164 -0.608292 0.342519
-0.456606 0.431447 0.194069
-0.192411 -0.714583 -0.474001
0.170487 0.529583 -0.537168
-0.441093 0.590828 -0.466293
-0.283829 -0.298968 0.450255
-0.456606 -0.394008 -0.0382086
-0.0424917 0.590828 0.439853
0.368595 0.496544 -0.537168
-0.32515 0.556284 -0.436029
-0.456606 0.389393 0.0804195
-0.456606 -0.112495 -0.129849
-0.144792 -0.714583 -0.243389
0.190927 0.0749422 -0.537168
0.201686 -0.140113 -0.537168
-0.456606 -0.558372 -0.349233
-0.0577916 0.0326041 0.450255
0.10662 -0.401075 0.361634
-0.351102 -0.400353 -0.537168
-0.0571861 -0.714583 -0.476502
0.461034 0.00208317 0.375478
0.220772 -0.0834719 0.450255
-0.456606 0.4193 -0.490741
-0.456606 -0.0841519 -0.397458
0.0107912 -0.149074 0.450255
0.396802 0.590828 -0.0892298
0.0782509 0.585325 0.466952
0.461034 -0.317272 -0.230585
0.461034 0.459591 -0.265789
0.135564 0.56008 0.133378
0.337316 0.590828 -0.188563
-0.391194 -0.469459 -0.537168
-0.370588 -0.714583 -0.107927
-0.35201 0.56008 0.245331
-0.456606 -0.20821 0.416659
0.461034 0.199507 0.33971
0.276663 0.56008 -0.483703
0.0553645 -0.714583 0.157084
-0.456606 0.36757 -0.381928
0.461034 0.00329794 -0.457464
0.206324 0.590828 0.0360486
0.186356 0.590828 -0.459403
0.227515 0.494695 0.458516
0.461034 0.197542 -0.481656
-0.180875 0.56008 0.411218
-0.15102 -0.143248 0.450255
0.222986 -0.246387 0.361634
0.386751 0.590828 0.41583
-0.138024 0.56008 -0.14582
0.122152 0.590828 -0.459089
0.0308776 -0.165479 0.361634
0.431659 -0.511177 0.450255
-0.0750808 -0.093477 0.361634
0.382985 -0.201592 0.450255
-0.456606 -0.50318 0.379397
-0.145588 0.56008 0.315443
0.0343966 0.590828 0.0271348
0.0798733 -0.309522 0.450255
-0.0665165 -0.714583 -0.329059
-0.456606 -0.609627 0.12184
-0.293774 -0.139207 0.361634
-0.456606 -0.353529 0.0251738
-0.149004 0.104848 0.361634
0.352244 -0.201929 0.361634
-0.185898 0.590828 0.136283
-0.0714701 0.590828 0.328289
-0.456606 0.548405 0.232344
-0.410831 0.590828 -0.0313948
0.430439 -0.519636 0.361634
-0.397014 -0.714583 -0.377072
-0.00319231 0.534649 -0.537168
0.461034 -0.523015 -0.0839667
0.461034 0.417953 0.224137
-0.419704 0.333903 -0.537168
0.423045 0.302164 -0.537168
-0.224142 4.85608e-05 0.361634
-0.406721 0.56008 -0.176053
0.0915353 0.270022 -0.537168
0.0461521 -0.101102 -0.537168
-0.456606 0.0406934 -0.46838
-0.314236 0.340982 0.450255
-0.273662 -0.160618 -0.537168
0.175975 -0.269517 0.450255
0.0264788 0.149065 0.361634
0.275292 0.56008 -0.382356
-0.03411 -0.714583 0.228909
0.314822 0.0706051 -0.537168
0.461034 0.0322336 0.0998005
0.00914515 0.163504 0.450255
0.130695 0.0962924 0.450255
-0.456606 -0.380831 0.329333
-0.172535 0.590828 -0.356514
-0.319387 -0.680887 0.308406
0.461034 -0.604997 0.277725
-0.241965 0.590828 -0.266356
0.396519 -0.706903 -0.537168
0.355416 -0.608292 0.356912
0.210789 -0.714583 0.251621
-0.34118 -0.682994 -0.537168
-0.404608 -0.60524 0.407272
-0.399197 0.143098 0.450255
0.410667 -0.60524 0.394902
0.0608755 -0.0389421 0.361634
-0.456606 -0.489399 0.0953472
0.142173 -0.236833 0.361634
-0.456606 -0.346153 -0.363528
0.0476428 -0.714583 -0.379107
-0.391555 0.342683 0.361634
-0.0254876 -0.714583 -0.0722185
0.461034 0.405756 -0.149915
-0.0347083 -0.418061 0.361634
0.461034 0.0826157 0.180382
0.0909225 0.590828 -0.262117
0.461034 -0.0937049 0.155678
-0.075857 0.56008 0.404636
-0.338662 -0.240724 0.361634
0.461034 -0.368181 -0.126762
0.181919 0.56008 -0.403555
-0.456606 0.269606 -0.271419
0.294518 0.514328 -0.537168
0.150465 0.341128 -0.537168
-0.104881 -0.714583 -0.510179
0.461034 -0.399063 0.071819
-0.123462 0.310176 0.450255
-0.0206394 -0.608292 0.329684
0.461034 0.548629 0.307661
0.404061 -0.714583 -0.405166
-0.207276 0.590828 -0.478848
0.218278 0.531268 -0.492879
0.246459 -0.485985 -0.537168
0.113372 -0.528078 0.361634
0.189752 -0.660306 0.308406
-0.360625 0.537921 -0.486227
-0.409131 0.56008 -0.264989
-0.27579 -0.107867 0.450255
0.461034 -0.577478 0.101858
0.226746 -0.714583 -0.416751
0.337285 0.590828 -0.111175
0.461034 -0.0637995 -0.391081
-0.456606 -0.279875 0.251238
0.195421 0.56008 -0.0234497
-0.456606 -0.448129 0.212127
-0.421072 -0.714583 -0.468809
0.123798 0.590828 0.338789
0.453533 0.56008 -0.454966
-0.197967 -0.295643 0.361634
-0.0949347 -0.714583 0.0196855
0.319337 0.00367925 0.450255
-0.284393 -0.280276 0.361634
0.461034 -0.440784 -0.24612
-0.246259 0.56008 0.248895
0.461034 0.0609542 -0.31187
-0.456606 0.263865 0.133967
0.404941 -0.344525 -0.537168
-0.456606 -0.612062 -0.053237
0.461034 0.256924 -0.229302
0.259531 0.306388 0.450255
-0.0460516 0.0439955 0.361634
0.257253 0.590828 -0.309922
0.353443 -0.47977 0.361634
-0.282612 -0.714583 -0.0590104
0.461034 0.582087 -0.317489
-0.0389109 0.244526 0.361634
0.0883004 -0.60524 0.41151
0.431333 0.56008 -0.0219744
0.285938 0.590828 -0.43743
-0.179359 0.369727 0.395557
-0.456606 -0.292397 -0.0653085
0.322905 -0.714583 -0.122202
0.0532364 0.56008 -0.16426
0.0581854 -0.30077 0.361634
-0.41757 -0.251997 0.450255
-0.456606 -0.674651 0.148854
0.407033 -0.452574 -0.537168
0.243908 -0.495851 0.361634
-0.0382218 -0.277303 0.450255
0.461034 -0.381117 0.327365
0.461034 -0.0167921 0.178401
0.333637 0.165857 0.361634
0.165119 -0.714583 0.212163
0.240197 -0.0603268 -0.537168
0.461034 0.162325 -0.221237
-0.186787 -0.565075 0.361634
-0.151978 0.277872 0.361634
0.461034 -0.476241 -0.15723
0.461034 -0.205135 -0.53178
-0.0344531 -0.211854 -0.537168
-0.193819 0.0221387 -0.537168
-0.249182 0.590828 0.332237
-0.342591 -0.070695 -0.537168
-0.456606 0.162585 -0.482484
0.221489 0.0388858 0.361634
0.419803 0.56008 -0.21245
-0.306642 0.466071 -0.531461
0.127504 0.590828 0.0502073
-0.19397 -0.537751 -0.537168
-0.215593 0.356964 -0.537168
0.0223188 0.245068 0.361634
0.0987921 -0.562737 0.450255
-0.353663 0.56008 -0.264323
0.0581609 0.590828 -0.421312
0.234023 -0.714583 -0.25625
0.340248 0.375286 0.439816
0.420751 0.163255 0.450255
0.296279 0.131217 -0.537168
0.461034 -0.192157 0.0795843
-0.456606 -0.337608 -0.248322
0.181496 0.590828 0.134243
0.0235281 -0.239937 0.450255
0.322414 -0.283102 0.361634
0.275564 0.107137 0.450255
0.335163 0.530589 0.361634
-0.384118 -0.356099 -0.537168
-0.456606 0.320162 -0.0608698
0.461034 -0.2521 -0.396572
0.188463 0.590828 0.425475
-0.133363 -0.603517 -0.48843
-0.288221 0.56008 0.0611693
-0.289785 -0.304818 -0.537168
-0.456606 -0.196022 -0.127121
-0.277995 0.08004 0.361634
0.072237 0.56008 0.411199
0.338331 -0.264595 -0.537168
-0.260086 0.20889 -0.537168
-0.0405215 0.56008 0.0309571
0.154875 0.221652 0.361634
-0.446368 0.120246 -0.537168
-0.0526202 0.590828 -0.0438947
-0.126145 0.590828 -0.0703255
0.461034 0.280683 0.338725
-0.242904 -0.714583 0.0716619
-0.31862 -0.714583 -0.489105
0.208433 -0.647102 -0.537168
0.450421 -0.714583 0.015688
-0.456606 0.0328219 -0.0620092
-0.376056 -0.340271 0.361634
-0.237692 -0.63617 0.308406
0.461034 -0.480657 0.156571
-0.221023 -0.714583 0.187313
0.219051 0.370689 0.40828
-0.456606 0.359012 0.17223
-0.118035 -0.714583 -0.298396
-0.242708 0.287888 0.361634
-0.456606 -0.512454 -0.101264
-0.45604 -0.343422 0.450255
0.165763 0.590828 -0.355678
-0.0158657 0.346541 0.450255
0.461034 -0.481463 0.0306393
-0.0637938 -0.148806 -0.537168
0.117604 -0.672255 0.308406
-0.272766 -0.509077 0.450255
-0.456606 0.254774 0.0251184
-0.0909536 -0.535258 0.361634
-0.356971 0.56008 0.146363
-0.344606 -0.561427 0.361634
0.0858891 0.10075 -0.537168
0.225141 0.151548 0.361634
0.171561 0.590828 -0.296346
-0.019411 -0.360377 0.361634
0.150854 0.0702447 0.361634
-0.266079 0.56008 -0.341735
-0.290371 -0.714583 0.180926
0.461034 -0.389902 0.201701
-0.456606 0.249456 0.206117
-0.076735 -0.0507258 0.450255
0.256927 -0.364897 -0.537168
0.461034 -0.645092 -0.204401
-0.411272 0.0178171 0.361634
-0.356675 0.275284 -0.537168
-0.122362 -0.154197 -0.537168
0.461034 0.203614 0.00655637
0.355416 -0.172482 -0.537168
-0.140563 0.21911 0.361634
-0.456606 -0.562571 -0.275311
-0.234947 -0.714583 -0.512989
0.107049 0.489549 0.361634
0.165502 -0.439644 0.361634
-0.456606 -0.253771 0.376193
-0.390097 0.403864 0.361634
0.25926 -0.551333 0.361634
-0.456606 -0.328142 0.136801
-0.0617846 0.14373 0.450255
-0.265449 -0.195297 0.450255
0.320371 0.590828 0.0537654
-0.0801151 0.590828 -0.236307
0.0184593 0.175118 -0.537168
0.0688332 0.474924 -0.537168
-0.456606 0.0486303 0.0587252
0.22532 -0.290101 0.450255
-0.416316 -0.562027 -0.537168
-0.316806 0.56008 0.398275
-0.456606 -0.172771 -0.304084
0.140896 -0.331822 0.361634
-0.0900566 -0.237806 0.450255
-0.0710161 0.201152 0.361634
0.426315 0.0635008 -0.537168
0.0471163 0.521156 -0.502991
-0.456606 0.469035 0.109266
-0.0153772 -0.638518 -0.537168
-0.211164 -0.437724 0.450255
0.437393 0.56008 0.382258
0.0206237 -0.696049 0.269971
-0.294914 0.56008 0.348181
-0.224618 0.0727605 -0.537168
-0.0545332 0.504809 0.461753
0.223148 -0.349651 0.361634
0.17217 0.590828 -0.137997
0.201022 -0.714583 0.116133
0.418626 -0.0693595 -0.537168
0.102648 0.199043 0.450255
0.461034 0.541276 0.0519096
-0.045505 0.367629 0.40969
-0.34926 0.178169 -0.537168
0.104703 -0.714583 -0.442825
0.461034 0.529423 0.130192
0.360346 0.590828 -0.00223301
-0.252604 -0.256372 0.450255
-0.199249 -0.643875 -0.423622
0.264631 -0.222273 -0.537168
-0.39375 -0.18867 0.361634
-0.328619 0.273089 0.361634
0.243989 -0.714583 -0.0567788
0.102988 0.303533 0.450255
0.0541135 -0.40605 0.361634
-0.0758652 0.199002 -0.537168
0.331064 0.470097 0.454573
0.432942 -0.102075 0.361634
0.461034 -0.4501 0.259523
0.309192 -0.155945 0.361634
-0.455534 -0.0660557 -0.537168
0.276174 0.474614 0.45685
-0.431897 0.51102 0.361634
-0.212252 -0.714583 -0.144306
0.309146 0.234075 -0.537168
0.371794 0.56008 -0.386513
-0.0457892 0.590828 0.241139
0.0828521 0.387347 0.461692
-0.456606 -0.146455 -0.415766
0.336819 -0.559373 0.361634
0.328253 0.56008 0.424184
0.0723913 -0.153642 -0.537168
0.461034 -0.127217 -0.287675
-0.189583 0.134623 -0.537168
0.461034 0.186177 -0.53289
-0.233989 0.371285 0.389884
0.342897 0.109506 0.361634
-0.00474845 0.590828 -0.271392
-0.393742 -0.0541313 0.361634
-0.0511322 0.331264 -0.537168
0.0923052 -0.455529 0.450255
-0.267679 -0.60524 0.421621
-0.456606 -0.132932 0.072903
-0.00836462 0.418778 -0.537168
-0.137483 0.56008 -0.231969
-0.35576 0.590828 -0.384123
0.461034 -0.0804041 0.438423
-0.456606 -0.0672686 0.331794
0.00367686 -0.360941 0.450255
0.461034 0.390316 0.0445683
-0.222101 -0.427233 -0.537168
0.0392066 0.590828 0.127569
-0.456606 0.589606 -0.29421
-0.455682 0.462803 0.44779
0.097394 -0.599068 -0.537168
0.186792 0.112074 0.450255
0.461034 -0.253411 0.253031
0.453952 -0.714328 0.308406
0.237603 -0.60524 0.42475
-0.119116 0.590828 0.00450815
-0.161472 0.256079 -0.537168
-0.0772434 0.522736 -0.537168
-0.456606 0.25911 -0.111009
0.461034 0.445576 0.336585
0.382404 -0.603517 -0.466879
-0.312161 -0.545594 -0.537168
-0.136775 0.590828 0.427134
-0.362109 0.56008 -0.0961353
-0.437322 -0.714583 -0.219108
0.461034 0.514532 -0.146308
0.149333 -0.179255 -0.537168
0.461034 -0.11017 -0.464165
-0.183322 0.590828 0.27497
-0.402355 0.56008 0.317752
0.0282338 -0.612211 0.308406
0.461034 -0.586013 0.169078
-0.433697 0.56008 0.404551
0.461034 -0.711337 -0.262445
-0.205086 -0.669887 0.269971
-0.142396 0.56008 0.235913
-0.456606 -0.659299 0.227128
0.265377 -0.714583 0.158429
0.0619859 0.590828 -0.497477
-0.456606 0.590286 -0.00817885
0.31472 0.56008 0.206513
0.461034 0.0270332 -0.207532
0.461034 -0.237813 0.166818
0.461034 0.0277985 0.269294
0.185859 -0.450742 -0.537168
0.186099 -0.333798 0.450255
0.415909 -0.714583 -0.0937612
0.301157 0.170853 0.450255
-0.454293 -0.379776 -0.537168
-0.456606 -0.463674 0.27464
0.0756779 0.56008 0.150938
0.196031 0.514331 0.361634
-0.329024 -0.608292 0.272776
-0.164297 -0.158643 0.361634
-0.235376 0.590828 -0.0229658
-0.456606 -0.551803 0.0211718
-0.0364496 0.590828 0.137921
-0.0648115 0.590828 -0.288371
0.166528 0.325339 0.361634
0.172551 -0.394605 -0.537168
0.243925 0.38141 0.458128
0.282287 -0.238477 0.450255
0.148556 0.56008 0.306101
-0.178428 0.539755 -0.537168
-0.297382 -0.0471614 -0.537168
-0.185098 0.197879 0.450255
-0.364514 -0.116061 0.361634
-0.456606 -0.0260454 -0.403818
0.220353 0.56008 -0.148028
-0.11083 -0.0388368 0.361634
-0.456606 0.590572 0.268275
-0.456606 0.56901 -0.415075
0.459726 -0.714583 0.197684
-0.456606 0.462195 -0.327436
-0.109766 -0.714583 0.196982
0.142548 -0.46384 0.450255
0.205963 0.590828 0.25472
-0.0651111 0.590828 -0.339124
-0.456606 -0.264558 -0.247272
-0.456606 -0.00492855 -0.343711
-0.307617 0.182719 0.361634
0.264602 0.590828 -0.249449
-0.399701 0.56008 0.173554
-0.405913 0.23067 0.361634
-0.456606 -0.187936 -0.352379
0.461034 -0.0242033 0.238996
-0.238232 0.590828 -0.110773
0.274504 -0.455666 0.361634
0.030449 -0.110421 0.361634
-0.103149 -0.339932 0.361634
0.461034 0.122157 -0.407974
-0.00570357 -0.418516 -0.537168
0.258307 0.590828 0.35759
0.0914963 0.590828 -0.0224465
0.0256653 0.48588 0.361634
-0.456606 0.218576 0.309925
0.0190186 0.590828 0.409951
-0.158807 0.460903 -0.532846
-0.456606 -0.251696 -0.156907
-0.182145 0.590828 -0.168792
-0.111626 -0.449 0.450255
0.331554 0.291596 0.361634
0.203203 -0.714583 -0.119187
-0.456606 -0.510892 -0.0219154
-0.280408 0.372931 0.418506
0.234548 -0.306702 -0.537168
-0.456606 -0.282925 0.0595251
0.1068 0.540803 -0.483343
0.260925 0.191601 -0.537168
-0.251022 -0.385163 0.361634
0.420546 0.13271 0.361634
-0.011496 -0.652778 0.308406
0.461034 -0.713193 0.100755
-0.456606 0.152259 0.158227
0.283552 -0.608292 0.321178
0.0779921 0.56008 -0.311172
-0.456606 0.41542 -0.0209013
0.243131 -0.714583 -0.19631
-0.234795 -0.670746 -0.537168
0.0470736 0.445292 0.462607
0.00450941 0.56008 -0.491895
-0.456606 0.522732 -0.24628
0.0983028 0.56008 -0.41861
0.00200814 0.590828 -0.0524118
-0.456606 -0.239937 -0.0193742
0.388091 -0.0638794 0.361634
-0.334313 0.337183 0.361634
-0.456606 -0.00291573 0.182523
0.41079 -0.317717 0.361634
-0.456606 -0.258362 0.167959
-0.0995305 0.56008 0.0792756
0.0844155 0.00497937 0.361634
-0.0973352 -0.651483 0.269971
-0.456606 -0.103566 0.144168
-0.456606 -0.168649 0.249587
0.138407 -0.714583 -0.332106
-0.456606 -0.29653 -0.362029
-0.456606 0.0729003 -0.158395
0.461034 0.0815226 -0.500818
-0.106487 -0.608292 0.333977
0.461034 0.445144 0.386128
-0.296497 0.56008 -0.489859
0.00568514 0.590828 -0.21074
-0.219415 0.442393 -0.537168
-0.421391 -0.603517 -0.465557
0.410182 -0.608292 0.333979
0.461034 -0.334497 0.0820093
-0.456606 -0.520948 0.187102
0.0851019 -0.356584 0.361634
0.336835 0.56008 -0.53701
-0.456606 0.366911 -0.32
0.376069 0.56008 0.157035
0.120484 -0.166988 0.450255
0.216355 0.55287 -0.537168
0.443668 0.454693 0.44878
0.0319961 0.582892 -0.537168
-0.456606 -0.370646 0.281099
0.306874 -0.134634 0.450255
-0.134864 -0.714583 0.265885
0.236765 -0.666283 0.269971
-0.456606 0.543697 0.105513
0.461034 -0.170227 -0.34181
-0.151287 -0.714583 -0.396172
-0.385793 0.590828 -0.536036
0.29618 -0.67434 0.308406
-0.351797 0.590828 0.0103786
-0.248659 -0.714583 0.242584
-0.0300616 0.451183 0.462513
-0.336312 0.56008 -0.211385
-0.456606 -0.658768 -0.309922
0.428693 0.0673803 0.450255
-0.450487 -0.025951 0.450255
0.419652 0.0495137 0.361634
0.406162 -0.390478 0.450255
-0.0593759 0.315998 0.361634
0.441824 -0.146176 -0.537168
-0.0277129 -0.688403 0.269971
-0.0878558 -0.60524 0.431887
0.0151863 -0.714583 0.0666685
0.202188 0.17219 0.450255
0.461034 -0.586486 -0.312034
-0.456606 -0.014802 -0.501209
-0.456606 -0.539437 -0.496493
0.0375179 -0.714583 -0.30031
-0.456606 0.48694 0.277676
0.460732 -0.645906 -0.537168
-0.447236 0.523261 -0.500886
0.119863 0.56008 -0.350443
-0.38696 -0.0492995 0.450255
0.15819 -0.557974 0.450255
