ply
format ascii 1.0
comment Created by Open3D
element vertex 1666
property double x
property double y
property double z
end_header
0.275257 -0.266976 0.464954
0.498943 -0.0325212 0.16102
-0.251828 0.716586 0.302208
-0.498274 0.329871 -0.299805
-0.162029 -0.734213 -0.074693
0.314996 -0.734213 -0.228318
-0.498274 0.446339 0.436328
-0.498274 -0.37358 0.283777
-0.472279 -0.734213 0.263661
0.326324 0.716586 -0.296429
-0.498274 0.295347 0.231988
0.498943 -0.483051 -0.208191
-0.28078 -0.348007 0.464954
-0.0164717 -0.734213 0.341257
0.0541142 -0.734213 0.0124133
-0.464157 0.716586 -0.328783
-0.376578 0.716586 0.0966089
-0.496305 -0.366683 -0.464391
-0.26732 0.52698 -0.464391
0.00484125 0.716586 0.256214
0.498943 -0.133706 -0.316887
0.0997063 -0.0921457 -0.464391
0.498943 0.518395 -0.000797437
0.278388 -0.734213 0.00404373
0.498943 -0.470665 0.0442709
0.282414 -0.353247 -0.464391
0.498943 0.135222 0.322971
-0.498274 -0.546745 -0.119495
-0.498274 0.0961092 -0.401101
-0.385398 -0.734213 0.0316096
0.46786 0.716586 0.110314
0.251719 0.0988654 -0.464391
-0.498274 -0.55022 -0.351947
0.00820531 0.509806 0.464954
0.295342 0.507796 -0.464391
-0.270577 0.0177794 -0.464391
0.33774 -0.652182 0.358813
0.00710046 -0.570532 -0.464391
-0.226281 -0.144209 0.464954
-0.27365 0.716586 -0.102079
0.498943 -0.326477 0.43769
-0.498274 0.464657 -0.140241
-0.0604956 0.716586 -0.157387
0.295228 0.187089 0.464954
-0.281939 0.241897 0.464954
0.311947 0.716586 0.376363
-0.385666 0.0260727 0.464954
0.442203 0.501507 0.464954
-0.28495 0.675814 0.496722
0.0812841 0.716586 0.0611209
-0.288111 -0.29458 -0.464391
0.498943 0.426065 -0.408482
0.498943 0.0407447 -0.412278
-0.498274 -0.162477 0.256664
0.309843 0.716586 -0.00751368
0.498943 -0.0679894 -0.0333936
0.498943 0.343787 0.267513
-0.330715 -0.606 0.358813
0.398349 -0.565223 -0.464391
-0.0148521 -0.0311025 0.464954
-0.157492 -0.734213 -0.267912
0.234259 0.714164 -0.464391
0.498943 0.235903 -0.122254
0.498943 -0.673788 -0.250356
-0.463894 0.716586 0.266761
0.498943 -0.506356 0.240203
-0.498274 0.0787493 -0.000513303
-0.498274 -0.189654 -0.13972
-0.0180063 0.716586 -0.341081
-0.498274 -0.361734 -0.0483675
-0.323316 -0.734213 -0.397304
0.284939 0.373224 0.464954
-0.0101426 -0.439971 0.464954
-0.339972 0.707778 -0.464391
-0.114384 -0.416583 -0.464391
0.498943 0.584761 -0.271421
-0.498274 -0.364533 0.464477
0.149764 0.716586 0.470545
0.0584118 -0.734213 -0.407703
-0.498274 0.17669 -0.171184
-0.10721 0.277584 0.464954
0.498943 0.694036 0.314117
-0.415639 0.379982 -0.464391
-0.498274 -0.548393 0.283915
-0.16096 0.173189 -0.464391
0.349077 -0.451529 0.464954
-0.0397311 -0.734213 0.168866
-0.14825 0.653758 -0.464391
0.436192 -0.238752 -0.464391
0.406662 0.054994 0.464954
0.122144 -0.157222 0.464954
0.498943 0.25805 -0.293763
-0.195787 -0.724557 0.358813
0.498943 -0.141066 0.293662
-0.498274 0.454413 0.0347321
0.0301272 -0.570588 0.358813
-0.498274 -0.21523 -0.337075
0.498943 -0.326437 -0.27793
0.00494817 0.133419 0.464954
-0.498274 -0.0140644 0.351169
0.161505 0.716586 -0.303824
0.138974 -0.359961 0.464954
0.498943 -0.182809 0.0846486
0.0334318 0.273404 -0.464391
-0.498274 0.53977 -0.285578
0.498943 0.40592 0.116707
0.172076 -0.670619 0.358813
0.369459 0.350169 -0.464391
0.33938 -0.091419 0.464954
0.498943 0.0789671 0.0285396
0.0794239 0.448064 -0.464391
0.169298 -0.235353 -0.464391
-0.498274 -0.374679 0.109804
-0.150734 0.566337 0.484529
0.308681 -0.734213 -0.391467
0.163791 -0.480038 -0.464391
-0.498274 0.58653 0.365928
0.173271 -0.734213 -0.117796
-0.498274 -0.0765589 -0.01878
-0.498274 -0.698905 -0.297304
-0.498274 0.247846 -0.436486
-0.498274 -0.0445904 -0.335826
-0.354434 -0.496299 0.464954
0.422268 -0.734213 0.0601289
-0.17187 -0.588466 -0.464391
-0.376736 0.554213 0.477468
0.146112 0.716586 0.317328
-0.263028 0.369218 -0.464391
-0.498274 0.623049 0.0556759
0.498943 0.358773 -0.0278782
-0.498274 -0.712316 -0.0758899
0.498943 -0.533346 -0.356859
0.496999 -0.708563 0.358813
-0.498274 0.154351 0.307326
0.485808 0.716586 -0.346548
-0.285812 -0.143671 -0.464391
0.00740637 -0.209838 -0.464391
0.498943 -0.32375 0.0211016
-0.498274 0.209414 0.111383
-0.37843 0.716586 -0.206724
-0.415912 -0.611131 -0.464391
-0.381704 0.361431 0.464954
-0.042716 -0.0263356 -0.464391
-0.498274 -0.0741601 0.131447
0.179481 -0.734213 -0.324499
0.368578 0.624954 0.486132
0.302878 0.716586 -0.152528
0.320949 -0.734213 0.182014
-0.132969 -0.363055 0.464954
-0.087616 0.522581 -0.464391
-0.134626 0.716586 0.195275
-0.498274 0.316256 0.374584
0.498943 -0.603239 0.0999532
-0.498274 -0.687343 0.120468
0.383084 0.716586 0.224675
0.498943 0.107916 0.180167
0.145868 0.14786 0.464954
0.498943 -0.0990045 -0.453928
-0.498274 0.683988 -0.461551
-0.498274 0.451158 0.291636
0.382362 0.155922 -0.464391
-0.100712 0.421097 0.464954
0.155934 0.42764 0.464954
-0.333459 -0.734213 0.285082
0.498943 0.550471 -0.135785
-0.247779 -0.734213 0.0466014
-0.0995417 -0.625811 0.358813
0.49709 0.167859 0.464954
-0.130854 0.716586 0.37307
0.423976 -0.217108 0.464954
0.498943 -0.111469 -0.161519
0.368326 -0.734213 -0.0965208
0.121141 0.0465096 -0.464391
0.498943 0.56239 0.35907
0.378855 0.716586 -0.438003
-0.100991 -0.734213 0.0493031
0.498943 -0.0106587 0.35577
0.498943 -0.532706 -0.0730654
-0.403544 0.0281775 -0.464391
-0.363114 0.716586 0.374012
-0.145074 -0.278093 -0.464391
0.498943 0.405118 0.391127
-0.253581 -0.734213 -0.177431
-0.0343078 -0.734213 -0.107837
0.498943 -0.40432 -0.101604
0.437279 0.716586 -0.225313
-0.498274 0.19734 -0.300091
-0.498274 0.437083 -0.373805
-0.259503 0.716586 0.153404
0.166474 -0.734213 0.0775353
-0.498274 0.413588 0.157892
0.498943 -0.418762 0.346779
0.498943 0.123276 -0.312975
0.365406 0.0280072 -0.464391
-0.497239 -0.234866 -0.464391
-0.498274 0.339564 -0.170918
0.308137 -0.228344 -0.464391
-0.498274 -0.248994 0.350244
0.0196212 0.716586 -0.0501882
-0.0470255 -0.734213 -0.33706
-0.383726 0.716586 -0.0296226
-0.0442515 -0.562471 0.464954
0.498943 0.592786 0.112027
-0.466273 -0.495659 -0.464391
-0.474762 -0.65294 0.358813
0.298782 -0.564787 0.448166
-0.0146472 0.701097 -0.464391
0.0383086 0.716586 0.379004
0.157264 0.17925 -0.464391
0.498943 -0.260086 0.328533
0.498943 -0.00351972 -0.296727
-0.139453 -0.0562656 0.464954
0.0487513 0.624522 0.486132
-0.498274 -0.481751 -0.0146061
-0.348997 -0.734213 0.15707
0.415674 -0.734213 -0.318146
-0.498274 -0.265122 0.189162
-0.183096 0.716586 -0.18506
0.498943 0.253091 0.356669
0.267434 -0.734213 0.300893
0.180403 0.716586 -0.0109213
-0.163521 0.696392 0.496315
-0.294737 0.120365 0.464954
0.212821 -0.0467872 -0.464391
-0.340654 -0.102612 0.464954
-0.498274 -0.596375 -0.231966
0.498943 0.645564 -0.00987684
0.303798 -0.489176 -0.464391
-0.486705 0.716586 0.147593
-0.389493 0.587445 -0.464391
0.428979 0.507251 -0.464391
-0.498274 0.562421 -0.0487606
0.102705 0.716586 -0.421055
-0.378892 -0.393953 -0.464391
-0.248567 0.716586 0.0154705
-0.498274 0.0673315 -0.275165
-0.299637 -0.734213 -0.066558
0.188798 0.569021 -0.464391
-0.385943 -0.291089 0.464954
0.10722 0.716586 0.194471
-0.278036 -0.646779 -0.464391
0.261263 0.683902 0.496722
-0.498274 -0.454716 0.386718
-0.498274 -0.40006 -0.350129
0.0371157 0.716586 -0.235583
0.498943 -0.421929 0.152847
0.20154 0.259859 0.464954
-0.187419 -0.257819 0.464954
-0.498274 -0.113014 -0.230039
-0.498274 -0.609675 -0.0176257
0.498943 0.229856 0.192204
-0.498274 0.61926 -0.199144
-0.153354 0.0228126 -0.464391
-0.485254 0.602304 0.486132
0.498943 -0.623469 0.241228
-0.498274 -0.481576 -0.254819
-0.498274 -0.0432955 0.464275
0.286434 0.222233 -0.464391
-0.347627 0.716586 -0.33262
-0.498274 0.0834024 0.418201
0.471758 -0.734213 -0.155016
-0.498274 -0.133795 0.369154
0.0581752 -0.734213 0.252501
-0.239089 -0.472205 0.464954
-0.136409 -0.734213 0.25733
-0.302345 -0.734213 -0.284385
0.425682 0.716586 0.403253
0.498943 -0.619312 -0.432855
0.498943 0.125291 -0.0918974
-0.498274 -0.454705 0.191235
-0.349988 0.716586 0.243916
-0.138931 0.167982 0.464954
-0.0391391 0.716586 0.115158
-0.42606 0.157511 -0.464391
0.350663 0.716586 0.115972
0.360873 0.606147 -0.464391
0.387998 -0.394277 -0.464391
-0.149743 0.716586 -0.0608823
-0.0821848 -0.153379 0.464954
0.23956 -0.143102 0.464954
0.498943 -0.245725 -0.356058
-0.22564 -0.566658 0.358813
0.190018 0.429691 -0.464391
0.375187 -0.674633 -0.464391
0.226928 -0.428993 0.464954
-0.278707 -0.0102162 0.464954
0.381562 -0.734213 0.297813
0.461479 -0.427479 0.464954
-0.21465 -0.734213 -0.374132
-0.0777634 0.246831 -0.464391
-0.214656 0.336258 0.464954
-0.498274 0.615192 -0.375042
-0.0552624 -0.734213 -0.227004
-0.387608 -0.225701 -0.464391
0.498943 -0.22477 -0.229295
-0.498274 -0.05078 0.238658
0.170009 -0.359256 -0.464391
-0.230929 -0.387918 -0.464391
0.238307 -0.581495 0.358813
0.336355 0.474758 0.464954
-0.498274 0.330339 0.0873652
-0.221412 0.26391 -0.464391
0.292702 0.020498 0.464954
0.0662339 0.0412803 0.464954
0.401934 -0.564787 0.358874
0.498943 0.546852 -0.372915
-0.255919 0.639818 -0.464391
0.388902 0.716586 -0.0870879
-0.269233 0.562736 0.483038
-0.396908 0.154842 0.464954
0.000372334 -0.45117 -0.464391
0.498943 -0.210981 -0.0249933
-0.312921 -0.207571 0.464954
-0.498274 0.716323 0.00283492
0.081788 -0.734213 0.14799
0.482507 -0.498926 -0.464391
0.498943 0.373318 -0.315262
0.00440367 0.400805 0.464954
0.183836 -0.734213 -0.431195
-0.498274 0.166474 -0.0612456
0.381895 -0.315053 0.464954
-0.235009 0.716586 0.412285
-0.498274 -0.239643 -0.0374665
0.498943 0.690418 0.207961
0.349904 0.277481 0.464954
-0.498274 -0.295239 -0.142925
0.134801 -0.564787 0.371652
-0.0773466 0.0674751 0.464954
-0.498274 -0.442784 -0.157172
0.497808 0.588051 0.486132
-0.494636 -0.0363337 -0.464391
0.388974 0.384171 0.464954
0.0687674 -0.508592 0.464954
-0.405768 -0.734213 -0.330712
-0.0991972 0.716586 -0.254222
-0.498274 0.421775 -0.250651
0.192878 -0.734213 -0.220127
-0.0776842 -0.632496 -0.464391
-0.303156 0.118986 -0.464391
-0.0478185 -0.313712 -0.464391
-0.399477 -0.403157 0.464954
0.498943 0.434519 -0.0979286
-0.361571 0.485112 -0.464391
0.498943 -0.193693 0.205137
0.140059 0.534092 0.464954
0.498943 -0.605825 0.352415
0.498943 -0.436741 -0.321945
0.107941 -0.641323 -0.464391
-0.392602 0.25743 0.464954
0.413767 0.716586 0.0231242
-0.498211 0.716586 -0.231621
0.175816 0.716586 0.103015
-0.109536 -0.464586 0.464954
0.226879 -0.150959 -0.464391
-0.195895 0.454056 -0.464391
0.498943 0.470993 0.303198
0.498943 0.0173379 0.258317
-0.498274 -0.730344 -0.201112
0.498943 -0.602381 -0.178681
-0.0993952 -0.516637 -0.464391
0.17492 -0.25454 0.464954
-0.498274 0.385718 -0.0673204
-0.0588641 0.608125 0.486132
-0.498274 0.0731142 -0.113021
0.0178866 -0.146329 0.464954
0.266428 0.716586 0.287043
0.0710236 -0.253725 0.464954
-0.498274 0.0334226 0.0922479
-0.498274 -0.64967 0.217527
0.467368 0.331063 -0.464391
0.081588 -0.729206 0.358813
0.411115 -0.564787 0.463965
0.498943 0.0178378 -0.0841486
-0.390244 0.693172 0.496722
-0.120905 0.716586 -0.39218
0.498943 0.0188556 0.456548
0.498943 0.207412 -0.0211917
0.498943 0.192155 -0.219653
-0.498274 0.606659 0.265141
0.223324 0.716586 -0.210673
-0.402341 -0.734213 0.355533
-0.498274 -0.259599 -0.245576
0.498943 -0.710092 0.11665
-0.416929 -0.564787 0.381213
0.107519 -0.0568002 0.464954
-0.498274 0.706099 0.357968
-0.280577 0.716586 -0.205786
0.00915969 0.380151 -0.464391
-0.498274 -0.302255 -0.381491
0.498943 0.150708 -0.413776
-0.397287 -0.734213 -0.460968
-0.498274 -0.69891 0.0218016
-0.216719 0.716586 -0.413382
0.230929 0.100511 0.464954
-0.498274 -0.646728 -0.418349
0.498943 -0.680648 -0.357421
0.386773 0.154443 0.464954
0.498943 0.424153 0.212893
-0.0197734 -0.726168 -0.464391
-0.498274 -0.0873758 -0.130197
0.498943 0.312031 -0.181398
-0.0500441 0.611353 -0.464391
0.102925 0.354852 -0.464391
0.498943 0.714193 -0.441603
0.498943 -0.395348 0.253971
0.183403 -0.734213 -0.0164971
0.498943 -0.180804 0.38165
0.0780784 -0.734213 -0.115186
-0.495718 -0.257866 0.464954
-0.153241 -0.734213 -0.169321
-0.498274 0.352724 0.462262
0.296409 -0.595719 -0.464391
0.393077 0.258523 -0.464391
-0.285776 -0.689218 0.358813
-0.28851 -0.564104 0.464954
0.498943 0.643033 0.408349
0.498943 0.474116 -0.278636
0.498943 -0.073574 0.0762394
-0.208931 -0.208848 -0.464391
0.00602333 -0.106818 -0.464391
0.171429 0.62515 0.486132
0.498943 -0.583107 0.00816119
0.254532 0.716586 -0.356876
0.00613619 0.518475 -0.464391
-0.424569 0.716586 -0.413776
-0.370473 0.461693 0.464954
0.498943 0.31967 0.152463
0.266331 0.716586 0.0759434
-0.498274 -0.137706 -0.398454
-0.498274 0.339249 -0.41799
0.0559427 0.716586 0.47319
-0.228724 -0.0699575 -0.464391
-0.195514 -0.498286 -0.464391
0.0354148 0.716586 -0.142548
-0.178251 -0.734213 0.11381
0.498943 -0.310001 -0.45802
0.498943 -0.570741 -0.265731
0.498943 -0.511342 0.332675
0.498943 0.653932 -0.196315
0.258312 -0.734213 0.0943626
-0.104937 0.716586 0.282892
-0.0669139 0.716586 -0.0183632
0.228474 0.716586 -0.0970296
0.498943 -0.733945 0.00926109
0.498943 0.28795 -0.380698
-0.498274 0.060442 0.297746
0.498943 0.497543 0.115601
-0.498274 0.151146 0.193656
0.446699 -0.0142228 -0.464391
-0.387226 0.290281 -0.464391
-0.249057 -0.733646 -0.464391
0.498943 -0.382657 -0.205703
-0.390143 -0.734213 -0.0764344
0.29073 0.395633 -0.464391
-0.0224673 0.245691 0.464954
0.271214 0.617451 -0.464391
0.237799 0.470649 0.464954
-0.498274 -0.557811 0.194376
-0.209887 0.0978823 -0.464391
0.0635193 -0.734213 -0.30944
0.337885 -0.192186 0.464954
0.283795 -0.734213 -0.144313
0.498943 -0.52688 0.146851
0.387375 0.712487 0.485439
-0.0822512 0.0864061 -0.464391
-0.498274 0.540176 0.0884433
-0.10461 -0.734213 0.354312
-0.498274 -0.174137 0.145933
0.498943 0.146551 0.0892472
0.219024 0.716586 0.414959
0.0592355 0.203575 0.464954
0.0508293 -0.351161 0.464954
-0.360793 -0.0722583 -0.464391
-0.498274 -0.630761 -0.146973
0.0753886 -0.266315 -0.464391
0.0882063 -0.535659 -0.464391
0.17779 -0.734213 0.298178
0.0690258 0.170677 -0.464391
0.498943 -0.057019 -0.376642
-0.185016 0.55748 -0.464391
0.498943 0.607355 0.283714
0.426388 -0.151941 -0.464391
0.498943 -0.275214 0.0936676
0.498943 0.0359333 0.106865
0.298606 -0.350915 0.464954
-0.448436 0.460685 -0.464391
0.288215 -0.69126 -0.464391
0.498943 0.0815689 0.396192
0.42474 -0.653171 0.358813
-0.226449 0.174251 0.464954
0.413514 0.716586 0.317161
-0.432206 -0.734213 0.181488
-0.498274 0.132101 0.0673352
-0.498274 -0.405452 0.0291762
-0.498274 -0.00756195 -0.0823784
0.498943 -0.119267 0.161476
0.070488 0.716586 -0.315125
-0.411941 0.716586 -0.111118
0.150059 0.649919 -0.464391
-0.0143135 -0.649998 0.358813
-0.498274 0.526754 -0.200812
0.139654 0.265116 -0.464391
0.0521658 -0.0208717 -0.464391
0.23678 -0.435367 -0.464391
-0.223163 -0.734213 0.278513
0.435734 0.413377 -0.464391
-0.0298171 -0.734213 0.253617
-0.498274 -0.460712 0.0961971
0.498943 -0.322634 -0.0731357
0.129773 0.716586 -0.217951
-0.123091 -0.0618146 -0.464391
0.0429855 0.716586 0.137439
-0.498274 0.276827 -0.23338
-0.498274 -0.317073 0.0473132
0.390943 -0.480654 -0.464391
0.390126 0.716586 -0.352366
0.498943 -0.402442 -0.0105194
-0.498274 0.501935 0.360639
-0.497408 -0.574397 -0.464391
-0.497905 -0.734213 0.354974
-0.383202 -0.522644 -0.464391
-0.0366195 -0.734213 -0.0055
-0.498274 -0.347848 0.381749
0.395126 -0.734213 -0.20194
-0.408722 -0.563613 0.464954
-0.498274 0.222262 0.356689
0.498943 0.626216 -0.346782
-0.415623 -0.0550043 0.464954
0.498943 -0.0621196 -0.237442
-0.024576 -0.734213 0.0823597
-0.498274 0.479182 -0.0490091
-0.498274 0.265808 -0.132425
0.427243 -0.0506028 0.464954
-0.498274 0.381834 0.245849
0.437011 0.0699759 -0.464391
-0.498274 -0.535757 0.368833
-0.428889 -0.297617 -0.464391
-0.451074 0.519692 0.464954
-0.471255 -0.459455 0.464954
-0.0498223 0.716586 0.355548
0.498943 0.443465 0.0346619
0.498943 -0.0916744 0.372689
-0.0312606 -0.337968 0.464954
-0.135059 0.306224 -0.464391
0.097251 -0.187052 -0.464391
0.498943 -0.199787 -0.428273
0.267733 -0.734213 -0.320191
0.465672 0.418071 0.464954
0.37762 -0.313316 -0.464391
-0.498274 -0.127171 0.0694687
0.411082 -0.734213 0.140878
0.432968 -0.734213 -0.39778
-0.498274 0.64066 0.174786
-0.498274 0.0950489 -0.198555
-0.470097 -0.734213 -0.385608
0.498943 0.261254 0.267214
0.189046 0.353411 0.464954
-0.126853 -0.734213 -0.351557
0.225033 -0.294215 -0.464391
-0.498274 0.226759 0.0322314
0.100755 0.716586 -0.025223
-0.498274 -0.278621 0.268796
0.498943 -0.0627967 0.248239
-0.431592 -0.734213 0.100734
0.168286 -0.560638 -0.464391
-0.108222 -0.273007 0.464954
0.234789 -0.0627096 0.464954
-0.0490818 0.33304 0.464954
0.498943 0.348218 0.0515317
0.498943 -0.339537 0.318385
0.498943 -0.357981 0.104911
-0.498274 -0.372932 0.203892
0.432719 -0.734213 -0.0353825
-0.498274 0.60425 -0.120845
-0.498274 0.635456 -0.277202
-0.392002 0.716586 0.176206
0.32702 0.557239 0.480761
0.0983777 -0.640568 0.358813
-0.240494 0.175257 -0.464391
-0.292161 0.354194 0.464954
-0.0816829 -0.230179 -0.464391
0.0940404 -0.442251 -0.464391
-0.338873 0.399694 -0.464391
-0.498274 0.536467 -0.366469
0.432494 0.219097 0.464954
-0.0578632 0.449326 -0.464391
-0.0528577 -0.564787 0.377451
0.498943 -0.147258 -0.0717427
-0.498274 0.394086 0.361499
-0.19245 0.716586 0.248888
-0.177244 -0.667053 -0.464391
-0.498274 -0.467547 -0.390599
0.498943 -0.324517 -0.35659
0.245137 -0.734213 -0.0672303
0.498187 -0.17087 0.464954
-0.299758 0.716586 0.080442
-0.498274 0.27277 0.4444
0.475505 0.716586 -0.0335015
0.00665099 0.716586 0.0371379
-0.0678643 0.528435 0.464954
0.116703 0.538467 -0.464391
0.331881 -0.734213 0.0676214
0.288047 -0.0257445 -0.464391
-0.498274 0.265322 -0.343649
-0.183797 0.716586 0.110728
-0.498274 0.173336 -0.390418
-0.164492 0.465793 0.464954
0.177829 0.716586 0.246362
0.498943 0.193755 -0.349082
0.319514 0.113279 0.464954
0.0782972 0.428564 0.464954
0.172232 0.716586 -0.386537
0.249682 -0.670925 0.358813
-0.498274 0.227256 0.27927
0.0817989 -0.422244 0.464954
-0.185606 -0.734213 0.000315338
-0.498274 -0.149935 -0.0437115
0.498943 0.611724 -0.0794886
0.279871 -0.486082 0.464954
-0.266484 -0.561739 -0.464391
-0.498274 -0.137406 -0.321138
0.387815 0.716586 -0.165999
0.114877 0.716586 0.388864
-0.115874 -0.734213 0.180546
-0.498274 0.63592 -0.0258695
-0.453901 -0.734213 -0.13476
-0.195307 -0.407961 0.464954
-0.498274 -0.448567 0.300036
-0.498274 0.402386 -0.463426
-0.498274 -0.616487 -0.313376
0.238848 -0.529566 -0.464391
-0.0374759 0.311832 -0.464391
0.498943 0.479843 0.406685
-0.061744 0.172228 -0.464391
0.498943 -0.608893 -0.331768
-0.498274 0.524003 0.269329
0.3509 0.455777 -0.464391
-0.498274 -0.119763 0.443817
-0.477602 0.0446394 -0.464391
-0.318092 0.716586 0.442196
0.211609 -0.338995 0.464954
0.498943 -0.0367693 -0.150023
0.498943 0.185808 0.262833
0.498943 0.279552 -0.0435155
0.498943 0.320229 0.390905
0.492463 0.551449 -0.464391
-0.137167 -0.564787 0.381756
0.13312 0.228959 0.464954
0.443722 0.656855 0.486132
0.498943 -0.0137614 0.0309206
-0.308672 -0.417665 0.464954
0.498943 0.240411 0.4348
0.124262 -0.734213 -0.18993
-0.498274 -0.186626 -0.216277
-0.498274 0.359422 0.0183752
0.498943 -0.710763 0.276491
-0.498274 0.294943 0.157141
-0.279735 0.445551 -0.464391
0.401322 -0.0767005 -0.464391
-0.139866 0.357385 0.464954
-0.303033 0.716586 -0.400041
0.041442 -0.683324 -0.464391
-0.266821 -0.266196 0.464954
0.308493 0.716586 -0.413389
0.498943 -0.657144 0.0485893
-0.498274 -0.0171077 0.0376754
0.498943 0.168335 0.389524
-0.183801 0.235057 0.464954
-0.188787 0.369911 -0.464391
-0.498274 -0.446907 -0.0801648
0.498943 0.539476 -0.209209
0.498943 0.713885 -0.266506
0.321236 -0.564787 0.377465
-0.227875 -0.0641808 0.464954
0.0627471 0.716586 0.301997
0.498943 -0.126333 0.0117233
0.308176 0.716586 0.214054
-0.230375 -0.734213 -0.299769
-0.149703 -0.18264 0.464954
0.498943 0.618234 0.194392
-0.498274 -0.316575 -0.29714
-0.305617 0.495964 0.464954
-0.423416 -0.734213 -0.253091
-0.191519 0.629627 0.486132
0.498943 0.320228 -0.108749
0.111255 -0.564787 0.445724
0.431683 -0.494145 0.464954
0.498943 0.712299 0.385395
0.338553 -0.734213 -0.302704
-0.205275 -0.328501 0.464954
-0.326184 0.616675 0.486132
-0.427623 0.0888039 0.464954
-0.433012 0.716586 0.394471
0.498943 -0.298104 -0.181241
-0.0652843 0.152431 0.464954
-0.294486 0.716586 -0.28299
0.304945 0.716586 -0.225202
0.338567 0.097919 -0.464391
-0.498274 -0.296178 0.123452
0.498943 -0.264046 0.253861
0.498943 -0.461666 -0.394163
-0.298639 -0.414031 -0.464391
-0.35832 -0.146069 -0.464391
-0.498274 -0.0122794 0.169297
0.32476 -0.734213 0.345256
-0.451444 0.716586 0.0580677
0.498943 0.142543 -0.166917
0.498943 -0.186364 -0.149644
-0.498274 -0.615915 0.0819201
0.361586 -0.734213 -0.0230203
0.498943 -0.608157 -0.106808
0.298596 0.716586 -0.0803727
0.166978 -0.100814 0.464954
-0.409522 0.617756 0.486132
-0.482846 0.613724 -0.464391
0.498943 0.104011 -0.238666
-0.206585 -0.636062 0.358813
0.393097 -0.734213 0.22679
-0.498274 0.0288804 -0.375485
0.280371 0.306667 -0.464391
-0.0864795 -0.00384148 0.464954
-0.112492 0.716586 0.449867
0.446791 -0.679152 -0.464391
0.498943 -0.254823 0.438541
-0.457012 0.0195802 0.464954
0.368131 -0.0107062 0.464954
-0.407622 0.716586 -0.285314
-0.498274 0.47093 0.221738
0.269987 0.303628 0.464954
-0.373465 0.107867 -0.464391
0.245753 -0.734213 0.164424
0.498943 0.0998881 0.261193
-0.434146 0.409512 0.464954
-0.498274 0.292933 0.306587
-0.498274 0.221968 0.187275
0.498943 -0.156161 -0.249478
0.498943 -0.138657 -0.392119
-0.498274 -0.527712 -0.187835
-0.420245 0.667144 -0.464391
0.498943 0.401236 0.315679
-0.109264 -0.734213 -0.0210769
0.417467 -0.146583 0.464954
0.18249 0.0839618 -0.464391
0.465621 -0.734213 -0.225544
-0.072553 -0.0792478 0.464954
-0.0154897 0.716586 0.188536
0.100437 -0.730721 -0.464391
0.498943 -0.646828 0.155541
-0.498274 -0.0487356 -0.259315
-0.164319 -0.36467 -0.464391
-0.498274 0.481353 0.138668
0.242412 0.716586 -0.278449
-0.429698 0.234224 -0.464391
-0.101397 0.716586 -0.459737
0.151124 0.0777623 0.464954
0.498943 -0.46049 0.415688
0.126276 -0.734213 -0.389968
-0.476224 0.716586 -0.165014
-0.0739083 -0.734213 -0.401791
0.498943 0.656897 0.0837883
-0.228565 -0.734213 -0.0963178
-0.347812 -0.650196 -0.464391
-0.498274 -0.0689903 0.395853
-0.310306 0.596008 -0.464391
0.394462 -0.383738 0.464954
-0.498274 -0.0727899 0.313399
-0.498274 -0.36343 -0.15775
-0.219763 -0.308105 -0.464391
-0.454004 -0.734213 -0.0187929
-0.282159 0.716586 0.219265
0.0404817 -0.564787 0.435187
-0.420773 0.716586 0.321381
-0.295483 0.716586 -0.0357479
0.343626 0.716586 0.31457
0.0299569 0.0479837 -0.464391
-0.317598 -0.734213 0.095212
-0.380895 -0.734213 0.228146
0.309904 0.716586 0.459636
-0.299984 -0.734213 0.224368
-0.498274 -0.557916 0.0316037
-0.498274 0.161574 -0.458585
0.0568387 -0.734213 0.0814984
0.41454 0.716586 0.154306
-0.314228 0.421594 0.464954
0.0629431 0.675279 -0.464391
0.498943 -0.484538 -0.139238
-0.356735 -0.301373 -0.464391
-0.117952 0.716586 -0.320359
-0.212748 0.716586 -0.247041
-0.498274 -0.649245 0.294405
-0.307723 0.284669 -0.464391
0.452922 0.155201 -0.464391
0.364741 -0.181921 -0.464391
0.498943 -0.670414 -0.170445
0.358536 0.534273 -0.464391
-0.498274 0.478984 -0.319635
0.498943 -0.732332 -0.0922291
0.207739 0.503263 -0.464391
0.498943 0.522794 -0.073206
0.0105309 0.448725 -0.464391
-0.121811 0.716586 -0.123209
-0.217864 0.716586 -0.0559867
0.498827 -0.734213 -0.315065
0.21874 -0.731751 0.358813
0.498943 0.437973 -0.341319
-0.351343 0.716586 -0.142356
0.408343 0.558388 0.481237
0.498943 0.49358 -0.417778
0.498943 0.361957 -0.385493
0.0772349 0.555437 0.480014
-0.211283 0.532119 0.464954
0.0767043 0.10845 0.464954
-0.0293082 -0.379063 -0.464391
0.036384 0.716586 -0.407867
-0.3267 -0.734213 -0.128511
-0.430647 -0.341724 0.464954
-0.117842 0.716586 0.124998
-0.498274 0.523929 -0.108102
-0.328281 0.297296 0.464954
-0.389574 -0.668156 0.358813
-0.325183 -0.734213 -0.221065
-0.0105683 0.0598401 0.464954
0.230713 0.167676 0.464954
0.237333 0.0332741 -0.464391
0.164365 -0.126802 -0.464391
0.446744 -0.287257 0.464954
-0.498274 -0.611454 0.154428
0.498943 0.0852102 0.464384
-0.498274 0.66045 0.429511
0.498943 -0.226232 0.139084
-0.207213 -0.133126 -0.464391
-0.00958224 -0.734213 -0.178369
0.446806 -0.442564 -0.464391
-0.498274 -0.729404 0.173566
-0.443041 -0.412262 -0.464391
0.117655 -0.734213 -0.270542
0.421146 -0.719675 0.358813
-0.0913415 -0.734213 -0.287402
0.00574315 -0.734213 -0.265128
-0.317038 -0.734213 0.028704
-0.493191 -0.152282 -0.464391
-0.377865 -0.184168 0.464954
0.145708 0.303168 0.464954
0.173942 0.716586 0.169281
-0.498274 0.151484 0.402151
-0.336137 -0.734213 0.358012
-0.0736618 -0.734213 -0.161055
-0.498274 0.101866 0.349333
-0.326504 0.716586 0.140945
0.498943 -0.0373019 0.416311
-0.498274 0.376372 -0.347558
-0.272063 -0.228489 -0.464391
-0.498274 0.124675 0.132997
0.498943 -0.56974 0.197091
-0.333259 0.716586 0.315134
0.498943 0.474861 -0.180967
-0.0784465 -0.400163 0.464954
0.270888 0.61955 0.486132
0.403804 0.655955 -0.464391
-0.2019 0.716586 -0.11976
0.203439 0.249319 -0.464391
0.498943 0.371881 -0.154317
-0.204526 0.716586 0.347751
0.498943 0.0699353 -0.0442095
0.498943 0.535315 0.44168
-0.317243 -0.734213 -0.462582
-0.44745 0.308658 0.464954
0.498943 0.339259 -0.240995
-0.444176 -0.670167 -0.464391
0.352067 -0.530754 0.464954
-0.498274 0.102167 -0.330488
0.113309 -0.734213 0.213285
-0.498274 0.655759 0.30815
-0.326582 -0.587102 -0.464391
-0.0239533 0.716586 0.41539
-0.498274 -0.193722 0.315698
0.0944948 0.716586 -0.090058
-0.0366819 0.716586 -0.236169
-0.143309 0.108634 -0.464391
-0.344014 0.0758229 0.464954
0.404225 0.716586 -0.289098
-0.493641 -0.300232 -0.464391
0.498943 0.256727 -0.225029
-0.498274 0.129061 -0.255534
0.329267 0.682546 -0.464391
0.0771003 0.0939312 -0.464391
0.498943 0.063613 -0.337997
-0.498274 -0.637336 -0.0826299
0.498943 -0.468321 -0.0685707
-0.498274 0.514136 0.0103194
-0.498274 0.686052 -0.374205
-0.498274 0.424937 0.0944349
0.0977916 -0.734213 -0.0349578
0.130667 -0.464206 0.464954
0.498943 0.187277 -0.283874
-0.498274 0.0207485 0.239991
0.245608 0.716586 -0.00381995
-0.0984587 0.665381 0.486132
0.167473 0.716586 -0.0740792
-0.498274 -0.0978046 0.194904
0.498943 0.0443959 0.316517
0.498943 0.663086 -0.399272
-0.187486 -0.0137881 0.464954
-0.44918 0.306433 -0.464391
0.0165254 -0.734213 -0.041183
0.498943 0.653636 -0.129288
0.332407 -0.734213 0.257049
-0.498274 -0.287907 0.403764
-0.115715 0.716586 -0.189449
0.102487 -0.734213 0.298434
-0.252796 -0.734213 0.110195
0.498943 -0.0784587 -0.101743
-0.498274 -0.0740037 -0.395593
0.498943 -0.425796 -0.25914
-0.348872 -0.00963503 -0.464391
-0.498274 0.238962 -0.0571302
0.22258 -0.564787 0.440797
0.347131 -0.734213 -0.160229
0.462328 0.716586 -0.16687
0.498943 0.196833 0.137871
-0.498274 -0.398637 -0.284475
0.350116 -0.0390849 -0.464391
0.101663 0.67942 0.496722
0.49423 0.0972665 -0.464391
0.498943 0.296051 0.211286
-0.498274 -0.53468 -0.0572727
0.284637 0.158882 -0.464391
0.498943 -0.64653 0.303866
0.152743 -0.298304 -0.464391
0.357643 0.210658 0.464954
0.498943 -0.413303 0.0741545
0.0282313 -0.734213 0.181688
-0.498274 0.312659 -0.0854118
-0.079492 -0.109323 -0.464391
0.498943 -0.0567319 0.312685
0.453787 -0.371672 -0.464391
0.498943 -0.503235 -0.301443
-0.175598 -0.734213 -0.423633
-0.498274 -0.670303 -0.241143
-0.0292538 0.716586 -0.0899322
0.498943 -0.55732 -0.421781
0.393613 -0.734213 -0.446926
0.498943 -0.574869 0.297615
0.0816306 0.232955 -0.464391
0.212699 -0.200001 0.464954
-0.317162 0.189826 0.464954
-0.277133 0.707654 -0.464391
0.498943 0.35319 0.454045
0.112389 0.375918 0.464954
0.00788356 -0.734213 -0.370599
0.366138 -0.254407 0.464954
-0.11146 -0.527185 0.464954
0.169059 0.709558 -0.464391
0.0205518 -0.313672 -0.464391
0.0997785 -0.31123 0.464954
-0.0979102 -0.351137 -0.464391
0.27629 -0.734213 0.225779
-0.404411 -0.116517 0.464954
0.498943 -0.128824 0.223263
-0.498274 -0.683709 -0.357919
-0.109991 0.593725 -0.464391
0.426635 0.582002 -0.464391
-0.498274 0.495979 -0.414003
-0.228137 -0.541444 0.464954
-0.324877 -0.564787 0.414216
-0.498274 -0.00626998 0.413107
-0.498274 -0.202437 0.436464
0.498943 0.561466 0.165938
-0.431384 0.208641 0.464954
0.296754 -0.15333 -0.464391
-0.0158342 0.214374 -0.464391
-0.179732 -0.49091 0.464954
0.0639559 -0.595822 -0.464391
0.461749 -0.564787 0.380674
0.498943 0.275904 0.0184969
0.241827 0.716586 0.344046
-0.498274 -0.59384 0.346977
0.227088 -0.734213 -0.367069
-0.2707 0.716586 -0.341082
0.0110179 0.600496 -0.464391
-0.498274 -0.310399 0.322023
0.498943 -0.338815 -0.132976
-0.498274 -0.23407 0.130283
-0.14411 0.420068 -0.464391
0.35957 0.716586 0.0531107
-0.254603 -0.734213 -0.0149586
-0.498274 0.678896 0.223507
-0.498274 -0.248439 -0.184665
0.498943 0.577941 0.0161734
-0.0783762 0.716586 0.221015
-0.110466 -0.734213 -0.108837
-0.498274 -0.507206 0.433404
0.146555 0.716586 0.0486478
-0.145934 0.245462 -0.464391
-0.498274 -0.529803 -0.410196
0.475024 0.460973 -0.464391
0.498943 0.526715 -0.31089
-0.498274 -0.36018 -0.403124
0.498943 -0.543082 0.0866177
0.498943 -0.241335 0.0286257
-0.287317 -0.0414214 -0.464391
-0.258452 -0.734213 -0.241323
0.25475 -0.734213 -0.435834
-0.416796 -0.0469338 -0.464391
0.498943 0.182223 0.0348678
-0.325164 0.0470234 -0.464391
0.222933 -0.734213 0.256128
0.00963489 0.297997 0.464954
-0.0226573 -0.664891 -0.464391
0.498943 -0.511719 -0.0155189
-0.297852 0.716586 0.38445
-0.498274 -0.691605 -0.140482
-0.465579 0.716586 -0.0488824
0.498943 -0.270252 -0.0400623
0.498943 0.632098 0.3482
-0.0615718 0.716586 -0.406822
0.0122159 -0.21043 0.464954
-0.34779 -0.0217835 0.464954
-0.498274 0.138263 -0.123779
-0.498274 -0.191738 0.00604949
0.152244 -0.0397611 -0.464391
0.295843 -0.420381 -0.464391
0.498943 0.169984 0.203528
0.0273769 -0.6944 0.358813
0.13657 -0.734213 0.0244895
0.247673 -0.734213 -0.246643
-0.0729173 0.716586 0.0565035
0.344109 -0.537659 -0.464391
0.498943 -0.375657 0.192233
-0.339381 0.54161 -0.464391
0.35668 -0.609332 -0.464391
0.26533 0.239858 0.464954
-0.498274 0.538728 0.432056
-0.498274 0.164496 0.0161367
0.369377 0.716586 -0.0184652
0.498943 -0.356705 0.385274
-0.498274 -0.24318 -0.111593
0.478323 0.716586 0.26196
0.498943 0.689408 0.0317314
0.498943 0.297222 0.0839704
-0.498274 -0.30465 -0.0681935
-0.0515816 -0.483929 0.464954
-0.498274 0.106469 -0.0548383
-0.153381 -0.664452 0.358813
0.371935 -0.734213 -0.359652
-0.0742647 -0.68055 0.358813
-0.234321 -0.203934 0.464954
0.15464 -0.734213 0.136624
-0.361257 0.716586 0.0262557
0.442086 0.104959 0.464954
-0.348245 0.716586 -0.0782253
0.230364 -0.734213 0.0401168
0.498943 0.53002 0.065081
0.0396283 -0.496582 -0.464391
-0.17214 -0.734213 0.205213
0.498943 -0.452963 0.270672
0.498943 -0.681606 -0.434921
-0.498274 -0.259611 0.0190286
0.498943 0.0485866 0.188236
-0.350941 -0.446895 -0.464391
0.162096 -0.418587 -0.464391
-0.498274 0.0908513 0.239758
0.438454 0.716586 -0.442998
-0.431878 0.0951845 -0.464391
0.221388 0.650465 -0.464391
0.177321 -0.604769 0.358813
0.347085 0.0506954 0.464954
-0.438812 0.519629 -0.464391
0.315055 0.660243 0.486132
-0.498274 0.121568 0.46411
-0.498274 0.362542 -0.243403
0.382403 -0.734213 -0.260211
0.180439 0.015444 -0.464391
-0.498274 0.672455 0.109209
-0.176116 0.716586 0.00938286
-0.242432 -0.461517 -0.464391
0.498943 0.0661495 -0.11905
0.498943 0.227005 -0.405016
0.292741 0.0557385 -0.464391
-0.00386096 0.672286 0.486132
-0.0201902 0.454958 0.464954
0.0934781 0.716586 -0.170858
-0.240426 0.716586 0.0926132
-0.186335 0.716424 -0.464391
-0.447032 -0.203208 -0.464391
-0.107536 0.482358 0.464954
0.498943 0.682497 0.149177
-0.0332574 -0.527067 -0.464391
-0.0727896 -0.734213 0.116737
-0.174 0.118017 0.464954
-0.359758 -0.359313 0.464954
0.498943 0.386337 -0.452303
-0.498274 0.199418 -0.110362
0.042927 0.716586 0.197706
0.334516 0.407142 0.464954
-0.498274 0.590992 -0.316076
-0.162119 0.50306 -0.464391
-0.287745 -0.734213 0.166611
0.120901 0.716586 0.124689
-0.271972 -0.106854 0.464954
0.15136 -0.734213 0.350915
0.498943 -0.0151464 -0.431045
0.405318 0.440816 0.464954
-0.459555 0.716586 0.199908
0.360882 0.716586 -0.24376
0.42763 -0.616362 -0.464391
0.498943 -0.199556 0.286483
-0.498274 0.352387 0.143998
0.2294 0.385901 -0.464391
0.0348248 -0.734213 0.312336
0.271636 -0.208259 0.464954
0.250065 -0.219164 -0.464391
0.498943 0.492941 0.182292
0.00213951 0.716586 0.328102
0.315361 -0.734213 -0.0712141
-0.42423 -0.356065 -0.464391
-0.270438 0.0477986 0.464954
-0.0715669 -0.167347 -0.464391
0.281352 0.523218 0.464954
0.366574 0.716586 0.430931
0.498943 0.648897 -0.292921
0.0781695 0.486824 0.464954
-0.498274 0.577516 0.0194275
0.498943 -0.474385 0.178036
0.254729 0.549364 -0.464391
0.498943 0.121005 -0.011547
0.439279 -0.734213 0.305594
-0.498274 0.419431 -0.176656
0.498943 -0.328737 0.261338
0.441935 0.716586 -0.385094
-0.498274 0.272807 0.0800232
-0.498274 -0.42774 -0.233253
0.452937 -0.348838 0.464954
-0.185338 -0.441232 -0.464391
0.498943 -0.287358 0.379631
-0.498274 -0.50266 0.138354
0.498943 0.363136 0.190716
0.413516 -0.734213 -0.147067
-0.498274 0.0420575 0.365103
0.152653 -0.698657 -0.464391
-0.423319 -0.734213 0.301776
0.28797 0.442203 0.464954
-0.328361 0.338501 -0.464391
-0.327347 -0.212302 -0.464391
0.241718 0.455052 -0.464391
0.498943 -0.387251 0.448141
0.307001 -0.285805 -0.464391
-0.165664 -0.734213 0.306774
0.498943 0.415148 -0.275883
0.498943 -0.235705 -0.299533
-0.410114 -0.482494 0.464954
-0.498274 0.0477491 -0.0616129
0.498943 0.461469 -0.0473468
-0.491228 -0.443285 -0.464391
-0.498274 0.042797 -0.222081
0.261475 -0.0770054 -0.464391
-0.176103 -0.116609 0.464954
-0.183158 0.716586 0.436501
0.498943 0.476696 0.237128
0.498943 -0.00572448 -0.227931
-0.498274 -0.241051 -0.388101
0.400972 0.328265 0.464954
0.498943 -0.541103 -0.147048
-0.346501 0.716586 -0.254058
-0.167067 0.716586 -0.358585
0.448057 0.716586 0.466309
-0.498274 -0.483535 0.240461
0.040853 0.32996 -0.464391
-0.498274 0.586734 -0.247663
0.498943 -0.0574348 -0.315036
-0.0171855 -0.0925179 0.464954
0.376293 -0.564787 0.409625
0.498943 0.0502786 -0.278324
0.00387797 0.190614 0.464954
0.290438 -0.0511136 0.464954
-0.31812 -0.734213 -0.338993
-0.0622163 -0.473669 -0.464391
0.22558 -0.694739 -0.464391
-0.498274 0.414695 -0.00584254
-0.479048 -0.734213 0.0695657
-0.498274 -0.536759 -0.268129
0.312316 -0.408303 0.464954
-0.339252 -0.734213 -0.0234687
-0.498274 -0.408717 0.428991
0.0557962 -0.0336666 0.464954
-0.424142 -0.249312 0.464954
0.111351 0.716586 -0.365118
0.498943 -0.724611 -0.398133
0.223323 -0.48565 0.464954
0.283327 0.716586 0.129841
0.226457 -0.361049 -0.464391
0.311294 0.565153 -0.464391
0.233751 -0.734213 -0.170377
0.104526 0.604427 0.486132
-0.498274 0.577269 0.140705
-0.498274 0.00991178 -0.0118301
0.0671131 -0.173774 0.464954
-0.21708 0.000130452 -0.464391
-0.19726 0.716586 0.192782
-0.0856251 -0.209583 0.464954
0.369869 -0.257543 -0.464391
0.213593 0.140248 -0.464391
0.498943 -0.186444 -0.336459
0.498943 -0.482075 0.112919
0.338952 -0.366856 -0.464391
-0.233984 -0.611962 -0.464391
-0.498274 -0.605463 -0.380291
0.498943 -0.383892 -0.303096
0.231896 0.716586 -0.408387
0.194154 0.675234 0.496722
0.428867 0.215445 -0.464391
0.498943 -0.538424 -0.216313
0.33264 0.343967 0.464954
0.205352 0.516229 0.464954
0.477906 -0.734213 0.0658413
0.00227118 -0.385487 0.464954
0.0915179 0.716586 -0.258623
-0.285944 -0.734213 0.314379
-0.243814 0.0968517 0.464954
0.0133217 -0.502209 0.464954
0.498943 -0.00131002 -0.373379
-0.498274 -0.191915 0.198812
0.182658 0.716586 -0.252233
-0.255195 0.314016 -0.464391
-0.453234 0.462305 0.464954
0.498943 0.526587 0.300254
0.127574 -0.00487901 0.464954
0.498943 -0.696309 0.180972
-0.450085 0.716586 -0.463186
-0.498274 0.208192 -0.245555
-0.0740469 -0.706349 -0.464391
0.449838 0.716586 -0.0827517
0.157335 0.384806 -0.464391
-0.0154689 0.573501 0.486132
0.498943 -0.185911 0.0254726
0.498943 -0.218694 -0.0804489
0.498943 -0.432719 -0.181752
0.0759766 -0.564787 0.389538
0.456378 -0.56893 -0.464391
-0.307941 -0.346279 -0.464391
-0.405092 -0.734213 -0.406178
0.498943 -0.5944 -0.0459975
0.178425 -0.564787 0.405635
-0.498274 -0.0118665 0.284632
0.024593 -0.302519 0.464954
0.12864 0.473173 -0.464391
-0.498274 -0.0590258 -0.177964
-0.498274 0.447699 0.374608
-0.498274 0.693736 -0.2818
-0.366214 0.162497 -0.464391
-0.498274 0.350564 0.327709
-0.154308 -0.307569 0.464954
-0.185159 0.388758 0.464954
-0.389559 0.716586 0.428311
-0.498274 -0.641356 0.0330887
-0.444067 0.716586 -0.240898
0.336086 -0.734213 0.129218
-0.203761 -0.734213 -0.200369
-0.0380867 0.0538852 -0.464391
0.0534212 0.546241 -0.464391
-0.251171 -0.564787 0.42101
-0.416128 -0.460009 -0.464391
-0.498274 0.676209 0.0423414
0.368309 0.716586 0.37621
-0.230578 0.682166 0.496722
-0.264745 -0.734213 -0.351121
0.494891 -0.240662 -0.464391
0.181631 -0.394159 0.464954
-0.0752646 -0.734213 0.217113
0.342111 0.302859 -0.464391
-0.205432 0.665239 -0.464391
-0.150888 0.716586 -0.236543
-0.145978 0.0228245 0.464954
-0.498274 0.562483 -0.155965
-0.498274 -0.383163 -0.0985434
0.286257 -0.607515 0.358813
0.15481 0.321808 -0.464391
-0.292708 -0.566871 0.358813
-0.0756616 -0.734213 0.283136
-0.0688573 0.206836 0.464954
-0.157221 0.299193 0.464954
0.41852 0.716586 0.0773809
-0.498274 -0.423302 0.146757
-0.498274 0.230935 -0.175585
-0.369632 0.204226 0.464954
-0.498274 -0.499876 0.318137
0.488699 -0.160518 -0.464391
-0.498274 -0.143468 -0.183286
-0.498274 0.28506 -0.394227
-0.176686 -0.734213 0.0595468
0.0617313 -0.114371 0.464954
-0.498274 -0.477556 -0.337277
0.438715 0.0112325 0.464954
-0.368637 0.650715 -0.464391
-0.498274 -0.212342 -0.283024
-0.0142561 -0.564787 0.420015
0.242418 0.716586 0.238615
0.498943 0.0924808 0.128396
0.0530499 -0.133359 -0.464391
-0.264561 -0.734213 -0.412668
-0.498238 0.680352 0.496722
0.497244 -0.492224 0.464954
0.498943 0.319391 -0.313306
0.441583 0.282115 -0.464391
-0.498274 0.486529 0.0828982
-0.498274 -0.329042 -0.00524358
-0.281845 -0.505022 0.464954
-0.319612 -0.310629 0.464954
0.208516 0.415877 0.464954
-0.323797 0.562553 0.482961
-0.0542734 0.386636 0.464954
-0.498274 -0.111266 0.273268
-0.185581 -0.564787 0.405244
0.498943 -0.33734 -0.411682
-0.106527 0.472129 -0.464391
-0.498274 0.640232 0.367663
-0.0536071 0.716586 -0.300864
0.498943 0.380866 -0.0956327
-0.447194 -0.606854 0.358813
0.498943 0.596205 -0.394048
0.498943 0.466267 0.458617
-0.485117 -0.310449 0.464954
-0.0299884 0.558107 -0.464391
-0.498274 -0.410907 0.35589
0.498943 -0.614088 -0.234324
0.455917 -0.0669449 -0.464391
0.47021 -0.56044 0.464954
-0.466107 -0.734213 -0.321446
0.498943 -0.411704 -0.375099
-0.116305 0.119552 0.464954
-0.498274 -0.413224 -0.409454
0.149765 0.126127 -0.464391
-0.467 -0.564787 0.400818
0.337775 0.208024 -0.464391
0.166379 0.716586 0.402422
-0.452932 -0.705957 0.358813
-0.24663 0.293681 0.464954
-0.0345187 -0.185045 0.464954
0.212405 0.0489321 0.464954
0.498943 -0.136826 0.111313
0.118956 -0.344646 -0.464391
-0.498274 0.229356 0.409298
-0.498274 -0.196648 -0.427565
-0.498274 -0.261405 -0.310896
0.0432656 -0.621956 0.358813
0.223332 -0.287288 0.464954
0.344094 -0.727117 -0.464391
-0.498274 -0.0341725 -0.128186
-0.416002 0.716586 0.244144
-0.251863 0.716586 0.46246
0.498943 0.187661 0.33013
0.150127 0.482148 0.464954
-0.498274 -0.310284 0.216698
0.498943 0.176242 -0.0639068
0.498943 -0.432897 0.210816
0.498943 0.65065 0.242777
0.498943 0.57305 -0.036429
0.168773 -0.308158 0.464954
-0.261161 0.61479 0.486132
0.498943 -0.331811 -0.221832
0.498943 0.682869 -0.0666264
0.368946 -0.605932 0.358813
-0.498274 0.382197 -0.139313
0.498943 0.233735 -0.174922
0.498943 0.319208 0.314044
-0.174502 -0.0730226 -0.464391
-0.498274 0.465734 -0.221827
0.264417 -0.564787 0.408442
0.498943 0.249305 0.139706
-0.441785 0.702661 0.493717
0.119398 0.716586 0.272186
-0.498274 0.55348 0.32521
-0.498274 0.154543 -0.333054
-0.371655 -0.236204 0.464954
0.144405 -0.211946 0.464954
-0.421233 -0.558643 -0.464391
-0.26055 -0.396305 0.464954
0.207284 0.194734 -0.464391
0.498943 -0.283972 0.145287
0.40361 -0.734213 0.00817802
-0.307208 -0.0548063 0.464954
0.0731511 0.716586 0.240396
-0.421784 0.716586 -0.162487
0.498943 -0.438441 -0.464129
-0.498274 0.416133 -0.313599
0.498943 -0.171217 0.155539
-0.235892 0.569531 -0.464391
-0.498274 -0.698896 -0.421168
0.498943 0.5957 -0.161926
0.498943 -0.678418 -0.118825
0.225923 0.716348 0.476117
-0.126198 -0.734213 0.109766
0.498943 0.659479 0.457885
-0.0737499 0.0156133 -0.464391
0.356364 0.403917 -0.464391
-0.298473 0.177298 -0.464391
-0.498274 -0.580626 -0.161193
0.498943 0.00339848 -0.0181999
0.446061 -0.320239 -0.464391
-0.498274 -0.00209015 -0.305852
-0.126637 0.229346 0.464954
0.422095 0.716586 0.265896
-0.00979906 0.716586 -0.191711
-0.498274 -0.084679 -0.296813
0.109185 -0.734213 -0.334158
-0.419858 0.716586 -0.35579
0.498943 0.432551 0.161219
-0.0901693 0.666164 -0.464391
-0.498274 -0.0273612 0.109094
-0.498274 -0.715072 0.306844
0.154464 -0.17763 -0.464391
0.339764 0.716586 -0.36436
-0.258172 -0.640287 0.358813
-0.498274 0.00377469 -0.431886
0.454957 0.716586 0.20066
0.498943 0.090377 -0.397886
0.498943 -0.502559 0.385689
0.498943 -0.170764 -0.198902
0.00620747 0.163667 -0.464391
0.0496373 -0.415894 -0.464391
-0.498274 -0.674303 -0.0235202
0.498943 -0.232249 0.378054
-0.498274 0.151011 0.245226
0.498943 -0.643911 -0.294014
0.498943 0.611633 0.0551125
-0.498274 -0.485782 0.0367112
-0.498274 0.254117 -0.293437
-0.378395 -0.564787 0.415281
0.498943 0.586017 0.433034
-0.0934423 0.570053 0.486068
0.447578 -0.734213 -0.0910678
-0.365145 0.716586 -0.380916
-0.12147 -0.598156 -0.464391
-0.498274 0.442314 -0.0847129
0.386128 0.0786404 -0.464391
-0.189181 0.303787 -0.464391
0.15792 -0.734213 -0.0688856
0.0142721 0.716586 -0.301264
-0.0255779 -0.249064 -0.464391
-0.498274 0.347948 -0.0315255
-0.498274 0.077197 0.0506426
0.0924217 0.284824 -0.464391
0.0253276 -0.629323 -0.464391
-0.159101 -0.220225 -0.464391
0.0262691 -0.734213 0.122451
-0.308658 -0.142441 0.464954
-0.248294 0.380377 0.464954
-0.182805 -0.734213 -0.127659
-0.105738 -0.734213 -0.234064
0.498943 0.468701 0.354097
-0.498274 0.569152 -0.405528
0.498943 -0.0264989 0.0956427
0.198754 0.716586 0.316929
0.498943 -0.238912 -0.18046
0.253863 -0.0122992 0.464954
-0.385598 -0.734213 -0.135593
0.498943 0.0228166 0.393983
-0.254418 0.716586 -0.149052
0.340545 0.716586 -0.186542
0.47516 -0.658581 0.358813
0.189339 0.716586 -0.156757
0.498943 0.492508 -0.113853
-0.498274 0.478438 -0.461536
0.442874 -0.098756 0.464954
-0.498274 -0.124721 0.129669
-0.498274 0.357069 0.194356
-0.498274 -0.411888 0.236143
-0.498274 -0.212279 0.247868
0.198397 0.716586 0.0363409
0.449063 0.348338 0.464954
-0.374904 -0.734213 -0.290656
-0.273892 0.247087 -0.464391
0.498943 0.284472 -0.431083
0.218928 0.605756 0.486132
0.456607 0.716586 0.34343
0.498943 0.417231 0.267854
-0.333304 0.690126 0.496722
-0.454563 -0.734213 -0.437009
0.498943 -0.277866 -0.227251
-0.430559 -0.734213 0.235551
0.0183183 0.650174 -0.464391
-0.498274 0.488624 0.409041
-0.110863 0.716586 0.00588911
0.494947 0.716586 -0.216602
-0.311693 0.646116 -0.464391
0.498943 -0.203361 0.426801
0.0820108 0.248207 0.464954
-0.498274 -0.0950266 -0.0806855
-0.498274 0.653235 -0.412053
-0.336057 -0.548334 0.464954
-0.498274 -0.204318 -0.0729773
-0.298636 0.716586 0.0155972
-0.498274 -0.496762 -0.120711
-0.0788059 0.716586 -0.0834922
0.462993 0.678685 -0.464391
-0.498274 -0.61328 0.259732
0.0448477 0.485024 -0.464391
-0.498274 0.712427 -0.416612
0.0436636 0.369984 0.464954
-0.498274 0.320675 -0.348853
0.365354 0.515364 0.464954
-0.445523 -0.734213 -0.183948
0.498943 -0.286548 -0.413986
-0.498274 0.400116 -0.407252
0.140959 0.582981 -0.464391
-0.0371046 -0.734213 -0.0580825
-0.494817 -0.086166 -0.464391
0.498943 -0.0955107 -0.274413
-0.0991081 0.139303 -0.464391
-0.327694 0.716586 -0.189692
-0.498274 0.610061 -0.0714061
0.342769 0.716586 0.253846
-0.498274 0.654875 -0.335428
-0.498274 0.71015 0.407551
-0.263336 0.0892019 -0.464391
-0.220798 0.585754 0.486132
-0.0689385 -0.561676 -0.464391
-0.498274 -0.141485 0.312718
0.498943 -0.38268 0.0350905
-0.317646 -0.0967809 -0.464391
-0.0702433 0.716586 0.15379
-0.43452 -0.734213 0.0383368
-0.498274 0.393825 0.411067
0.195011 0.716586 -0.342534
0.498943 -0.12256 0.421416
-0.453018 0.567064 -0.464391
-0.498274 -0.268346 0.0825042
0.376298 -0.683236 0.358813
0.498943 0.415683 -0.0285218
-0.345798 -0.734213 -0.176074
-0.221896 -0.688335 -0.464391
-0.15157 0.716586 0.328187
-0.498274 0.663675 -0.177473
0.135764 -0.522237 -0.464391
-0.494377 0.0679998 0.464954
-0.0601125 -0.297964 0.464954
-0.498274 0.0430624 -0.163193
-0.148658 -0.474079 -0.464391
0.498943 -0.0826297 0.128591
-0.443912 0.652982 0.486132
-0.0257591 -0.60212 0.358813
0.288746 -0.141246 0.464954
0.211393 -0.584392 -0.464391
0.349181 -0.144304 0.464954
0.265658 0.671915 -0.464391
-0.18376 0.60661 -0.464391
0.205258 -0.099548 -0.464391
-0.448557 -0.734213 -0.0859177
-0.498274 -0.318679 -0.206028
-0.410901 0.716586 0.0111995
-0.0163886 -0.150351 -0.464391
0.21792 0.716586 -0.049218
-0.196119 0.716586 0.0540384
-0.497308 0.315189 -0.464391
0.218342 0.716586 0.127163
-0.158635 0.716586 -0.423168
0.0471039 0.411501 -0.464391
0.101372 -0.734213 0.101438
0.389085 -0.0810021 0.464954
0.498943 -0.0318064 -0.087479
-0.00172847 -0.0527531 -0.464391
-0.295624 0.716586 0.2808
-0.132236 0.630236 0.486132
0.357556 0.716586 -0.127813
-0.201713 -0.546586 -0.464391
-0.498274 0.0537634 -0.325508
-0.404769 0.439238 -0.464391
0.0615759 -0.734213 -0.160886
-0.473778 -0.734213 0.124833
0.498943 -0.332456 0.147258
-0.498274 -0.151151 -0.259988
0.0279382 -0.734213 -0.0883076
0.142315 -0.734213 0.265156
0.367827 0.10955 0.464954
0.322505 0.605178 0.486132
-0.453597 -0.0105934 -0.464391
-0.498274 -0.148685 -0.113918
-0.480293 0.0949083 -0.464391
0.498943 0.0204376 -0.134945
-0.448972 0.716586 0.117312
0.237914 0.716586 -0.164582
0.498943 0.191627 -0.141604
0.498943 -0.57721 -0.377084
0.0182153 -0.734213 -0.435686
0.498943 -0.657495 0.000313358
0.128205 -0.690736 0.358813
-0.0592423 0.716586 0.298417
-0.0878626 -0.345903 0.464954
0.335883 -0.291961 0.464954
0.456819 -0.734213 0.15605
-0.45868 -0.505966 0.464954
0.465705 0.716586 0.0535533
-0.0835629 -0.564787 0.437253
0.487389 0.0175765 -0.464391
-0.0476928 0.358846 -0.464391
0.433642 -0.564787 0.419637
-0.402283 0.712007 -0.464391
0.498943 0.193349 -0.439257
0.498943 -0.0750313 0.183327
-0.35489 -0.564787 0.362557
-0.498274 0.252206 0.135468
-0.498274 -0.661168 -0.183937
-0.133889 -0.423464 0.464954
0.498943 0.275166 -0.0929043
0.498943 -0.14362 -0.126227
-0.498274 0.60197 0.202651
0.377423 -0.117941 -0.464391
0.301085 0.0674157 0.464954
0.494097 -0.734213 0.318752
-0.378242 -0.734213 -0.237914
-0.489199 -0.734213 -0.24773
-0.381212 -0.734213 0.122006
-0.336455 0.14328 0.464954
-0.498274 -0.0886153 0.0415761
0.498943 -0.282854 -0.305981
-0.181222 -0.734213 -0.3091
-0.498274 -0.502123 0.194492
0.331942 0.716586 0.172894
0.178058 -0.734213 -0.372005
-0.498274 -0.694686 0.259133
0.128871 -0.734213 -0.134699
-0.498274 -0.181275 0.370472
-0.498274 0.587529 0.0917965
0.0345743 0.575262 0.486132
0.498943 0.452467 0.101031
-0.485693 0.410805 0.464954
-0.498274 0.029909 0.0430383
0.0957541 -0.03928 -0.464391
0.396127 -0.0281156 -0.464391
-0.225194 0.0467185 -0.464391
0.00169202 -0.734213 0.0222204
0.498943 0.233098 0.305166
-0.0359997 -0.610255 -0.464391
0.374791 -0.734213 0.18326
0.42458 0.716586 -0.136386
-0.498274 -0.440412 -0.306367
0.498943 -0.417244 0.396877
-0.111768 0.0496281 -0.464391
0.320671 -0.23608 0.464954
0.0235238 -0.0687348 0.464954
-0.498274 -0.34417 0.145746
0.276014 -0.734213 0.347241
-0.498274 0.0928244 0.0983038
-0.404094 0.516476 0.464954
0.076732 0.159873 0.464954
-0.498274 -0.357111 0.327859
0.474339 -0.734213 -0.355242
0.154618 -0.63593 -0.464391
0.45359 -0.616137 0.358813
0.219261 0.213203 0.464954
0.31699 0.342516 -0.464391
-0.0460395 -0.0764253 -0.464391
-0.498274 0.214688 -0.343661
0.341479 -0.431105 -0.464391
-0.498274 0.312559 0.0180148
-0.16196 -0.0232536 -0.464391
-0.32999 0.0215672 0.464954
0.0977935 0.716586 0.452214
-0.0925948 0.716586 0.336557
0.249346 -0.53498 0.464954
-0.451804 0.166578 0.464954
0.0392185 0.206693 -0.464391
0.0551478 -0.0781063 -0.464391
0.498943 -0.117248 0.0596765
-0.260768 -0.352067 -0.464391
-0.0681979 -0.4231 -0.464391
