ply
format ascii 1.0
comment Created by Open3D
element vertex 1680
property double x
property double y
property double z
end_header
0.497718 -0.490026 -0.00578536
-0.237288 -0.618942 -0.50618
-0.499772 -0.12873 -0.411922
0.497718 0.243266 0.124389
0.497718 -0.0406408 -0.222619
0.337504 -0.706778 0.363906
0.346402 -0.616789 0.494655
-0.403703 0.354919 -0.50618
-0.271211 -0.0728538 -0.50618
-0.0352268 -0.274433 -0.50618
-0.0739943 -0.438945 -0.50618
0.157995 -0.449403 -0.50618
0.497718 0.556526 0.164184
-0.326697 -0.706778 0.116218
0.203797 0.707446 -0.0314407
0.0552714 0.707446 -0.366694
-0.404452 0.168401 -0.50618
-0.0962567 0.707446 -0.419082
0.497718 0.129621 -0.407376
0.0540292 -0.706778 -0.349113
-0.498585 0.707446 -0.413782
0.22228 0.691119 -0.50618
-0.499772 -0.148836 0.492323
0.497718 0.503895 0.390607
0.0404861 -0.291875 0.494655
0.252688 0.126138 0.494655
-0.499772 0.118523 -0.375572
-0.216075 -0.706778 -0.0673177
0.497718 0.337858 -0.43029
0.354696 -0.156683 -0.50618
-0.499772 0.53879 0.247883
-0.025595 0.339128 -0.50618
-0.499772 -0.259856 -0.375858
-0.499772 0.404302 0.384235
0.493013 0.707446 -0.25494
-0.20666 0.122533 -0.50618
-0.499772 -0.48137 -0.239261
0.0782884 -0.235362 -0.50618
-0.218803 -0.706778 -0.299584
0.497718 -0.295957 0.468331
0.0716564 0.158648 -0.50618
0.179343 0.500363 0.494655
0.497718 -0.53208 0.217006
0.497718 -0.289432 -0.00178667
0.497718 0.598603 -0.0919701
0.497718 0.352479 0.0781543
0.163511 0.707446 0.161961
-0.49198 0.626191 -0.50618
-0.0495703 0.707446 -0.168968
-0.499772 0.61601 -0.162436
-0.044245 0.416747 0.494655
0.497718 -0.695842 0.348096
-0.385121 0.707446 0.466597
0.128969 -0.706778 0.206723
-0.493719 -0.706778 -0.306245
0.340432 -0.706778 -0.397125
-0.499772 -0.617417 0.277994
-0.31076 0.00488183 0.494655
-0.499772 0.448589 0.121143
0.264542 -0.706778 0.042749
-0.148502 0.707446 -0.229737
0.497718 0.088755 -0.194582
-0.499772 -0.24108 0.315219
0.497718 -0.324111 0.158336
0.0973703 0.707446 -0.0939045
0.497718 -0.534994 -0.453374
-0.499772 -0.608448 -0.369967
-0.499772 0.137253 0.040487
0.108288 0.070814 0.494655
-0.499772 0.135544 -0.110573
0.497718 0.0228248 0.260054
-0.499772 -0.601422 -0.490098
-0.389249 -0.706778 -0.445396
0.355066 0.425236 -0.50618
-0.499772 0.598176 0.494426
-0.117597 -0.706778 0.487686
-0.308483 0.707446 -0.450301
-0.432502 0.476902 0.494655
-0.0623319 0.707446 0.256061
0.390078 -0.0459264 -0.50618
0.497718 -0.194656 -0.402865
-0.417982 -0.706778 0.041202
-0.123144 -0.474663 0.494655
0.316857 -0.521754 -0.50618
-0.499772 0.268321 0.227026
0.22508 0.302912 0.494655
-0.499772 -0.546306 0.475316
0.497718 -0.546513 -0.235508
-0.499772 0.513092 0.00627425
-0.126806 0.707446 -0.0128573
0.38711 -0.177264 0.494655
-0.415561 -0.216214 0.494655
0.194507 0.501328 -0.50618
0.497718 -0.265574 -0.208875
-0.499772 0.234118 -0.170637
0.0584241 -0.0474884 -0.50618
-0.499772 -0.20916 0.0584677
0.163279 -0.0899924 0.494655
-0.499772 0.337667 -0.0738653
-0.499772 0.672269 0.114612
-0.055394 -0.62753 -0.50618
0.189108 0.233153 -0.50618
-0.390306 0.707446 -0.220219
-0.130265 -0.706778 0.04289
-0.263836 -0.350851 -0.50618
0.497718 -0.066319 0.492234
0.155434 -0.301425 0.494655
0.497718 -0.20877 -0.0718814
0.497718 0.151078 0.201378
0.497718 0.165894 -0.0798946
0.370682 0.707446 0.156855
-0.290284 -0.583149 0.494655
0.385399 -0.706778 0.110409
-0.244036 0.707446 0.384307
-0.0992068 -0.706778 0.17611
0.395054 -0.523895 0.494655
-0.499772 0.14667 0.373031
-0.0238822 0.707446 0.490891
0.312294 0.00929955 0.494655
-0.287167 0.707446 -0.0911847
0.164812 0.620761 0.494655
-0.35031 -0.129525 0.494655
0.0113494 0.707446 0.0927391
-0.169189 0.707446 0.17238
-0.499772 0.341816 -0.293868
-0.391576 -0.706778 -0.0797894
0.497718 -0.441355 -0.121847
-0.106855 0.644181 -0.50618
0.497718 0.701191 0.493724
-0.368349 0.345564 0.494655
0.191887 -0.461262 0.494655
-0.493111 0.403732 -0.50618
-0.1314 0.707446 0.374899
0.076226 -0.63258 -0.50618
0.0156132 -0.706778 0.403708
0.497718 -0.633357 0.224899
-0.499772 0.199619 -0.439007
-0.276274 -0.335412 0.494655
-0.391452 -0.20216 -0.50618
-0.487017 0.036637 0.494655
0.123669 0.707446 -0.490306
0.497718 -0.0647005 -0.0761313
0.476116 0.122456 -0.50618
-0.111677 0.457267 -0.50618
0.143281 0.707446 -0.286743
-0.499772 -0.147363 -0.164297
0.00638454 -0.197235 0.494655
0.497718 -0.472796 0.135808
0.0629927 0.707446 0.323843
-0.499772 -0.0170161 -0.475981
-0.11015 0.0709868 -0.50618
-0.460724 0.707446 0.385319
-0.481678 0.707446 -0.0336044
0.497718 0.299446 -0.267211
0.00241763 0.583461 -0.50618
-0.250421 0.374633 0.494655
0.233031 -0.588165 0.494655
0.497718 0.612718 -0.407975
-0.159126 0.301155 0.494655
0.320205 0.707446 0.411413
0.220329 -0.706778 0.402299
-0.310986 0.179155 0.494655
-0.499772 -0.337078 -0.0646913
0.383433 0.609065 0.494655
0.497718 0.131587 -0.287965
0.303461 0.707446 -0.389082
-0.23821 -0.676279 0.494655
-0.0103222 0.241688 -0.50618
0.104722 -0.706778 0.314682
-0.0715904 -0.706778 -0.427159
0.0382042 0.307165 0.494655
-0.437007 -0.625305 0.494655
0.223263 0.707446 0.396571
0.393422 0.625447 -0.50618
0.497718 0.656202 0.25288
0.464816 -0.706778 0.0538911
-0.472707 -0.141772 -0.50618
-0.278702 0.707446 0.276801
-0.227032 -0.706778 0.0339066
-0.499772 -0.0364038 0.0111517
0.244032 0.707446 0.230205
0.264058 -0.264257 0.494655
-0.0609974 -0.056439 -0.50618
0.12414 -0.706778 -0.13113
-0.499772 0.623477 -0.283978
0.497718 0.525285 -0.221419
0.392081 0.196198 -0.50618
0.482278 -0.451104 0.494655
-0.464368 -0.471743 -0.50618
-0.202654 0.230666 -0.50618
0.00431122 -0.706778 -0.134086
0.497718 -0.465521 0.32829
-0.499772 -0.0801223 -0.294574
0.497718 -0.355351 0.330299
-0.242128 0.0258692 -0.50618
0.497718 -0.329609 -0.403565
-0.408815 0.0353471 -0.50618
-0.305075 -0.701825 -0.50618
-0.499772 -0.378308 0.109194
-0.303091 0.172792 -0.50618
-0.0256725 -0.706778 -0.270982
0.497718 0.613897 -0.187443
-0.370241 0.707446 0.126601
0.449452 0.707446 -0.454893
0.36203 0.389584 0.494655
-0.40006 -0.706778 0.250221
0.29049 -0.706778 0.248967
-0.3357 -0.46173 0.494655
0.271944 -0.706778 -0.172515
-0.499772 0.508995 -0.347104
-0.499772 -0.0433785 0.348486
0.497718 0.353654 0.44262
0.271487 -0.324337 -0.50618
-0.499772 0.0478436 -0.292389
0.497718 -0.133544 0.389264
-0.345177 0.707446 -0.0178033
0.497718 -0.300654 0.248877
0.497718 0.450302 0.263526
-0.499772 -0.645142 -0.163226
0.497718 0.59717 0.391613
0.405261 -0.696019 -0.50618
0.00410468 -0.396033 0.494655
0.497718 -0.17395 0.293351
0.271737 0.10745 -0.50618
0.497718 0.546391 -0.506051
-0.482867 -0.706778 0.30648
-0.499772 -0.513351 -0.326525
-0.195683 -0.170616 0.494655
-0.499772 0.304965 0.0245518
0.497718 -0.244792 0.103757
-0.422944 -0.378468 -0.50618
-0.0819748 -0.255371 0.494655
-0.213985 -0.247586 -0.50618
-0.39613 0.588848 -0.50618
0.0473723 -0.706778 0.0375031
0.232581 -0.132077 -0.50618
-0.410488 -0.706778 0.441711
-0.499772 -0.139381 -0.00468912
0.497718 -0.640578 0.475861
-0.499772 0.268171 0.459402
0.254785 -0.706778 -0.430956
0.497718 0.35088 0.264268
0.44765 -0.198491 -0.50618
-0.183054 -0.706778 -0.167074
-0.499772 0.330765 -0.419174
-0.469316 0.707446 -0.321817
0.497718 -0.623892 -0.433246
0.349391 -0.706778 0.455627
0.167482 -0.706778 -0.0163049
0.497718 0.629088 0.0877395
0.497718 -0.648907 -0.263394
-0.499772 0.474579 0.312039
-0.0204356 0.146729 -0.50618
0.443439 -0.706778 -0.100536
0.497718 0.274135 -0.11876
-0.499772 -0.538292 0.00420887
0.308586 -0.706778 -0.0618156
-0.0251085 0.504917 0.494655
0.410999 0.707446 0.076215
0.497718 -0.0702442 -0.408493
0.497718 -0.156987 0.126447
0.400414 0.181403 0.494655
0.324535 -0.611724 -0.50618
-0.215797 0.613975 -0.50618
0.37312 -0.399143 -0.50618
0.182532 0.330707 -0.50618
0.497718 -0.188865 -0.255398
-0.362851 0.707446 0.245972
0.497718 0.0130291 0.369235
0.318125 0.707446 -0.23035
-0.173826 -0.706778 -0.428417
0.0303419 -0.590063 0.494655
-0.499772 -0.686762 0.102528
0.0322027 -0.706778 0.157975
-0.499772 -0.0374713 0.440781
-0.499772 0.438158 -0.291468
-0.200521 0.646355 0.494655
0.279036 0.474345 -0.50618
-0.304473 -0.706778 -0.0965189
-0.197863 0.707446 0.0881535
-0.0842368 -0.706778 0.272525
-0.212529 0.404762 -0.50618
-0.0970819 0.269462 -0.50618
0.257004 -0.0712968 0.494655
0.111522 -0.550521 -0.50618
-0.499772 0.63329 0.413449
0.497718 0.41567 -0.389018
-0.16003 -0.371815 0.494655
-0.300309 -0.539595 -0.50618
0.497718 -0.62034 -0.176673
0.0661603 -0.495651 0.494655
0.419899 -0.706778 -0.234878
0.0996254 -0.706778 -0.43336
-0.0489278 -0.0529209 0.494655
-0.499772 0.641561 0.220976
-0.4457 0.707446 0.289559
-0.499772 -0.182953 0.158351
0.270608 -0.706778 -0.344455
-0.349542 0.514831 -0.50618
-0.499772 -0.396 -0.220032
-0.499772 0.599604 0.0394513
-0.499772 0.054574 0.207786
0.497718 0.3297 0.162139
-0.449527 -0.330775 0.494655
-0.323744 0.643815 0.494655
0.497718 0.503405 -0.0458686
0.497718 0.0464753 0.0174054
0.497718 -0.517132 0.398458
-0.088173 -0.595274 0.494655
-0.499772 -0.0744376 0.161448
-0.499772 0.430636 0.466784
-0.499772 0.0614215 -0.154527
-0.298923 -0.706778 -0.335678
0.29784 0.707446 -0.0932411
0.0840973 -0.665384 0.494655
-0.499772 0.436459 -0.194653
-0.305249 0.707446 -0.309669
0.0689367 0.697564 0.494655
0.497718 -0.578304 -0.019535
0.497718 0.156056 0.116406
-0.499772 -0.705484 0.00594756
-0.216592 -0.701272 -0.50618
0.400492 0.707446 0.38411
0.497718 -0.358361 -0.274868
-0.225718 -0.528375 0.494655
0.106151 0.544247 0.494655
-0.223881 0.321117 -0.50618
0.0780054 0.707446 0.144441
0.485768 -0.370841 -0.50618
-0.499772 0.698987 -0.147768
-0.44083 -0.680376 -0.50618
0.0851459 0.505824 -0.50618
0.497718 0.440688 -0.199493
0.401963 0.707446 -0.226885
-0.140386 0.0802869 0.494655
0.101491 -0.0126639 0.494655
-0.0504659 -0.356758 -0.50618
0.497718 0.143649 0.420529
-0.225798 0.186023 0.494655
0.497718 -0.375913 -0.0196214
-0.0564903 0.707446 0.169341
-0.499772 0.044546 0.294506
-0.13013 0.707446 -0.317511
-0.499772 -0.444296 0.376315
-0.246746 -0.706778 0.302605
0.266397 0.498631 0.494655
0.497718 0.440102 0.0651176
0.169841 -0.192954 -0.50618
0.199722 -0.0288603 -0.50618
-0.499772 0.556839 0.341007
0.174915 -0.690685 0.494655
-0.499772 -0.53557 0.0866104
0.497718 0.211744 0.0482342
0.290993 0.707446 0.0200497
0.0950081 0.0260728 -0.50618
0.143186 0.707446 -0.183845
-0.499772 -0.460741 -0.0587603
0.359841 -0.706778 0.19707
0.433038 0.0143865 0.494655
-0.0697236 0.535216 -0.50618
-0.499772 0.218902 0.0627166
-0.0146068 0.707446 -0.415819
0.200484 -0.706778 0.164379
-0.158196 0.50765 0.494655
-0.309864 0.520027 0.494655
-0.499772 -0.486227 0.235076
0.242354 -0.487281 -0.50618
-0.304421 0.34778 -0.50618
-0.251579 0.517559 -0.50618
-0.204119 -0.118625 -0.50618
-0.0214742 -0.706778 -0.0151193
-0.499772 0.367397 0.312197
-0.337198 -0.119594 -0.50618
-0.0633825 0.219624 0.494655
0.324634 0.707446 0.227224
0.461935 -0.373161 0.494655
0.497718 -0.139941 0.217342
0.064367 0.375455 -0.50618
-0.40083 -0.531098 -0.50618
-0.499772 0.554979 -0.110416
0.497718 0.350988 -0.342002
-0.499772 0.265206 -0.244213
-0.395598 -0.706778 0.156976
0.421201 -0.706778 0.36766
0.135944 0.707446 0.357936
-0.499772 0.154402 -0.304469
0.444694 0.707446 -0.0385126
0.497718 0.494147 -0.307089
-0.499772 -0.465537 0.137301
0.497718 0.0142515 -0.160594
0.084568 0.146503 0.494655
0.150908 0.160956 -0.50618
-0.483595 -0.327489 -0.50618
0.243576 -0.631447 -0.50618
-0.499772 -0.51059 -0.155572
0.060269 0.707446 -0.0215696
-0.156279 -0.706778 -0.24231
0.34017 -0.23702 -0.50618
-0.166627 -0.44957 -0.50618
-0.218515 0.011207 0.494655
-0.499772 -0.252326 -0.29343
0.187728 0.707446 0.0639697
-0.499772 -0.249008 -0.0161113
0.453959 0.516572 0.494655
0.464237 0.101057 0.494655
0.229527 0.201078 0.494655
-0.118941 -0.108928 -0.50618
-0.0839995 0.707446 -0.0907468
0.0364378 0.707446 -0.274538
-0.0306105 -0.706778 -0.351783
0.39801 -0.508963 -0.50618
-0.208698 0.707446 -0.0581149
0.424681 -0.706778 -0.431641
-0.499772 0.474758 -0.420629
0.0717865 0.707446 0.40112
0.0126353 -0.463775 -0.50618
-0.155233 -0.0857217 0.494655
0.497718 -0.117537 -0.00823601
-0.499772 0.21522 0.28771
-0.485887 -0.706778 0.393787
0.497718 -0.0337357 -0.303512
-0.499772 -0.434433 0.292253
-0.341939 -0.706778 -0.219157
-0.418378 0.172083 0.494655
-0.499772 -0.205697 0.411471
0.497718 0.20554 0.301996
-0.499772 -0.628514 0.201829
-0.0560802 -0.51379 -0.50618
0.49206 0.327176 -0.50618
0.347272 0.258544 -0.50618
0.329506 -0.359021 0.494655
0.408472 0.707446 -0.378572
0.30066 0.343499 0.494655
0.497718 -0.347848 -0.188138
0.194834 0.600388 -0.50618
-0.110583 -0.263281 -0.50618
0.497718 0.289954 0.484315
-0.499772 -0.331229 0.386189
-0.366098 0.436123 -0.50618
0.110035 -0.706778 -0.281524
-0.385263 0.281236 -0.50618
-0.499772 -0.291634 0.103806
0.178404 0.412545 0.494655
-0.499772 -0.290242 -0.136011
0.183417 -0.230985 0.494655
-0.360558 -0.294455 0.494655
0.497718 -0.609234 0.406917
-0.430847 -0.471145 0.494655
-0.499772 -0.416995 -0.383789
0.497718 0.00654009 0.0869014
0.441054 0.0167865 -0.50618
-0.308192 0.0993023 0.494655
-0.306195 0.707446 0.0864933
0.497718 -0.258468 -0.133655
0.421827 -0.614628 0.494655
-0.0663038 0.707446 -0.488287
0.178 0.136466 0.494655
0.497718 0.328112 -0.0590423
0.497718 0.262549 -0.429305
0.497718 -0.639175 0.0522497
-0.42271 0.397763 0.494655
-0.499772 -0.20221 -0.427631
0.43932 -0.241399 0.494655
-0.322201 -0.0180895 -0.50618
0.0268864 0.393543 0.494655
0.263084 -0.706778 0.340902
-0.491083 0.523897 0.494655
-0.337314 -0.706778 0.4268
-0.324004 0.707446 0.423705
0.484304 -0.706778 0.26551
-0.0202558 0.599184 0.494655
0.497718 -0.310014 0.391121
-0.499772 -0.0876232 0.288627
-0.477539 0.706217 -0.50618
-0.498009 0.707446 0.0456366
-0.499772 0.340895 0.212613
-0.499772 -0.617422 -0.0320415
0.262606 0.275865 -0.50618
0.0343098 -0.29922 -0.50618
-0.499772 -0.39962 -0.0173981
-0.498196 -0.222562 0.494655
0.294881 0.640375 -0.50618
-0.499772 0.558786 -0.477484
-0.0477154 -0.706778 -0.49937
-0.023905 -0.706778 0.205714
0.497718 0.500682 0.113402
-0.0502177 0.707446 0.0106582
0.497718 0.283993 0.318048
-0.383602 0.0140122 0.494655
-0.444717 0.661536 0.494655
-0.310971 -0.706778 0.350399
-0.499772 -0.327202 -0.404283
0.497718 -0.112704 -0.234627
0.328793 0.167121 0.494655
0.497718 -0.44754 -0.450176
-0.499772 -0.192037 -0.348854
0.496574 -0.621342 -0.50618
-0.285998 0.707446 -0.380891
0.210241 0.414891 -0.50618
0.451808 -0.122678 0.494655
-0.0756933 0.707446 0.327452
0.497718 -0.395662 0.173849
0.496277 -0.706778 -0.42001
-0.0815806 0.385645 -0.50618
0.497718 -0.660625 -0.115662
0.497718 0.202415 -0.272883
0.497718 -0.507101 0.0704836
-0.499772 0.387699 -0.126093
-0.499772 -0.342024 0.205908
-0.431632 -0.706778 -0.35591
-0.499772 0.260659 -0.103551
-0.099465 0.362093 0.494655
0.439271 0.707446 -0.309073
-0.195888 0.707446 -0.288136
-0.15666 -0.61568 -0.50618
-0.499772 0.49021 0.179806
-0.245578 0.707446 -0.14975
-0.499772 0.0574427 -0.433307
-0.499772 0.41215 -0.0575667
0.334651 0.707446 0.0864754
0.427465 0.378817 -0.50618
-0.426965 0.707446 -0.414875
-0.335602 0.671835 -0.50618
-0.499772 -0.00305299 0.158751
-0.499772 -0.681219 -0.239828
0.301982 0.0196652 -0.50618
0.497718 -0.464049 -0.309549
-0.0515175 -0.448969 0.494655
-0.147644 -0.706778 -0.0999675
0.497718 0.503958 0.212215
-0.499772 0.336899 0.407145
0.497718 0.589197 -0.0214435
0.460354 0.707446 0.220864
-0.146316 0.227027 0.494655
-0.186949 0.488198 -0.50618
-0.499772 0.117367 0.174695
-0.499772 -0.109973 -0.230206
-0.492575 0.178229 -0.50618
0.268675 -0.4267 0.494655
-0.0274271 -0.120323 0.494655
-0.0478862 -0.706778 0.447756
0.236653 -0.706778 -0.499644
-0.253271 -0.706778 0.182589
0.497718 0.0880877 0.233027
-0.499772 -0.50818 0.416111
-0.275211 -0.706778 -0.25748
-0.253505 0.44489 0.494655
-0.426038 -0.280589 -0.50618
-0.0731066 -0.706778 -0.126137
0.336717 0.661467 0.494655
-0.499772 0.513997 0.0807023
0.497718 0.495667 0.316834
-0.277952 -0.167141 0.494655
0.497718 0.279382 -0.200205
0.0602988 0.622541 -0.50618
-0.499772 -0.572624 -0.187613
-0.0471822 -0.706778 0.343787
0.497718 0.313534 0.385587
-0.409916 0.707446 -0.0469598
-0.167809 0.576608 0.494655
0.497718 -0.0455739 0.234107
-0.499772 -0.607302 0.109876
-0.319078 -0.606605 -0.50618
0.0449068 0.707446 -0.451853
0.332147 -0.233268 0.494655
0.430449 -0.706778 0.165438
0.497718 -0.0363234 0.418059
-0.499772 0.222516 0.407159
0.0546439 -0.146789 -0.50618
-0.229118 0.707446 -0.43951
-0.499772 0.0646864 0.0231875
0.420205 -0.108179 -0.50618
-0.229251 0.707446 0.225482
0.497718 0.0426345 -0.399153
-0.196699 -0.706778 0.433534
-0.396018 0.707446 -0.290831
0.497718 -0.486887 -0.173685
0.215955 -0.405486 -0.50618
0.497718 0.671155 -0.313892
-0.100288 0.650627 0.494655
0.497718 -0.186257 -0.330835
-0.00671272 -0.0114922 -0.50618
-0.0732764 0.110079 0.494655
0.192954 -0.151998 0.494655
0.0897761 0.261756 0.494655
0.237883 0.707446 -0.421071
0.225925 0.175219 -0.50618
0.497718 0.0966809 -0.0380688
-0.207809 -0.533715 -0.50618
0.214839 -0.706778 -0.304573
0.285848 0.707446 -0.169873
-0.499772 -0.631504 0.467853
0.497718 0.645042 0.440625
-0.169572 -0.706778 0.34731
0.199318 0.707446 -0.223033
0.497718 -0.634212 -0.365608
0.497718 0.695215 0.0703188
-0.272292 0.598773 0.494655
0.497718 0.129132 -0.139398
-0.292786 -0.408497 0.494655
0.230332 0.640145 0.494655
0.497718 -0.084822 0.102911
-0.499772 -0.054459 -0.417796
-0.499772 -0.570247 0.359881
0.217325 0.707446 0.319129
0.199736 -0.706778 0.0638705
-0.499772 0.388525 0.0889966
0.165353 0.707446 -0.0916028
0.490071 0.707446 0.296869
0.0309377 0.543341 0.494655
0.497718 -0.497402 -0.386902
0.497718 -0.132551 -0.0747044
0.497718 -0.200383 0.400415
0.497718 -0.633694 0.307074
-0.348984 -0.706778 -0.390956
0.358454 -0.706778 -0.206618
0.231879 0.707446 -0.346564
0.322727 -0.706778 0.0770968
-0.499772 -0.361526 0.461569
-0.218253 -0.406016 -0.50618
0.442677 0.382789 0.494655
0.0758864 -0.487226 -0.50618
-0.133715 0.707446 -0.487654
-0.431655 0.707446 -0.167006
0.452309 -0.706778 -0.0259625
0.121647 -0.706778 -0.198434
0.176788 -0.39567 0.494655
-0.0811447 -0.164613 -0.50618
0.497718 0.195597 -0.422599
0.497718 -0.0431233 -0.503843
-0.499772 -0.0150073 -0.0710115
-0.499772 -0.204854 -0.215836
-0.499772 -0.109904 0.437784
0.281548 -0.706778 0.429501
0.31497 -0.104825 0.494655
0.394896 0.707446 -0.0830622
-0.116642 0.707446 -0.171046
0.497718 -0.604643 0.164669
0.104039 -0.354177 -0.50618
0.497718 -0.00540831 0.180828
-0.499772 -0.356535 -0.143076
0.0503661 0.0378196 0.494655
0.121122 0.707446 -0.356166
0.0600238 -0.151389 0.494655
0.447404 0.707446 0.449289
0.497718 0.411083 -0.137157
0.344632 0.359566 -0.50618
0.497718 -0.363808 -0.346544
0.00952928 -0.613485 -0.50618
0.187406 -0.706778 -0.447863
0.236271 0.0291321 -0.50618
-0.184602 0.707446 0.0231061
-0.271241 -0.284887 -0.50618
-0.499772 0.1572 -0.023072
0.352917 0.569738 -0.50618
-0.414628 -0.145096 0.494655
-0.0789483 0.0352409 0.494655
-0.499772 0.654726 -0.347726
0.48655 -0.706778 -0.296861
0.0107278 -0.226945 -0.50618
0.497718 0.622216 0.171292
0.351845 0.551063 0.494655
0.0620812 -0.706778 0.237555
-0.120013 0.707446 0.216231
0.419563 -0.258067 -0.50618
-0.499772 0.660945 -0.0860699
0.497718 -0.0827725 -0.172131
0.497718 -0.691094 0.413683
0.497718 0.0301757 -0.260988
-0.371506 -0.615444 0.494655
-0.240685 -0.239261 0.494655
-0.499772 -0.020284 0.0910053
-0.499772 0.384903 0.163968
0.246816 0.0608416 0.494655
-0.343743 0.227238 -0.50618
0.497718 -0.321604 0.092891
-0.00511007 0.116893 0.494655
-0.499772 0.120353 0.103691
-0.442044 -0.706778 -0.122405
-0.00162574 0.40567 -0.50618
0.400638 0.246803 0.494655
0.497718 0.704463 -0.505974
0.359045 0.13983 -0.50618
0.000134792 -0.0794461 -0.50618
0.3223 0.446433 0.494655
-0.341937 -0.706778 0.285388
0.497718 -0.242702 0.278719
0.497718 0.179234 -0.333778
0.497718 0.558337 -0.153447
0.088946 -0.696417 -0.50618
-0.434279 0.110634 -0.50618
-0.499772 0.567285 -0.316668
-0.0123081 -0.706778 -0.196923
0.449889 0.657197 0.494655
0.280708 0.707446 -0.474591
-0.499772 -0.161641 0.311482
-0.499772 -0.551059 0.237119
0.104909 -0.706778 0.000654044
0.497718 -0.256201 -0.423184
0.183564 0.707446 0.489532
0.0689982 0.440014 -0.50618
0.19403 -0.525935 0.494655
0.497718 0.217125 -0.0381065
0.3538 0.707446 0.301508
0.399387 -0.706778 -0.29622
0.497718 -0.463636 0.199823
0.336514 0.503963 -0.50618
-0.315452 -0.523605 0.494655
0.497718 0.532449 0.449802
-0.427622 0.228529 -0.50618
-0.499772 0.0934269 0.336764
-0.499772 -0.637945 -0.312804
0.140466 -0.634399 0.494655
-0.499772 0.409238 -0.442464
-0.260163 -0.706778 0.0889807
-0.383839 -0.706778 -0.0132465
-0.499772 0.308809 0.276897
-0.499772 0.277492 0.0890015
0.43971 0.707446 -0.172425
-0.475311 0.0997611 0.494655
0.18939 -0.706778 -0.147781
0.45766 -0.532642 -0.50618
0.492817 0.0604911 -0.50618
0.137417 -0.0440229 -0.50618
-0.298914 -0.0911989 0.494655
0.497718 0.080703 0.0843634
0.497718 -0.208011 -0.465563
0.106727 0.707446 -0.428526
0.497718 -0.451781 -0.0571666
0.351024 0.303927 0.494655
0.137924 0.643471 -0.50618
-0.0742486 0.0179821 -0.50618
0.332577 -0.457451 0.494655
-0.172561 -0.706778 -0.36444
-0.464268 -0.550704 -0.50618
-0.340838 0.707446 -0.155414
0.497718 0.0755664 0.398306
0.497718 -0.129004 -0.433609
0.439473 0.581145 -0.50618
0.0257494 -0.706778 0.340642
-0.499772 -0.0782148 -0.494018
-0.366234 -0.706778 -0.160175
-0.237234 -0.706778 -0.362381
-0.499772 0.110961 0.425847
-0.322789 0.301007 0.494655
-0.499772 -0.447248 -0.31876
0.360362 -0.706778 -0.462331
0.497718 -0.513703 -0.0716937
-0.336004 -0.39762 -0.50618
-0.499772 0.0569968 -0.355228
-0.499772 -0.0508367 -0.145963
-0.133463 -0.550882 0.494655
-0.086901 0.490862 0.494655
-0.499772 -0.686602 0.237933
-0.324101 -0.24903 -0.50618
0.00299852 0.707446 -0.133785
0.103389 0.707446 0.245363
-0.499772 0.492753 -0.165848
-0.423165 0.30251 0.494655
0.293212 -0.114233 -0.50618
0.497718 0.585917 0.0416567
-0.00872746 0.707446 -0.352999
-0.450031 -0.706778 -0.0328319
-0.499772 -0.211148 0.214662
-0.499772 -0.677606 -0.361712
0.0645557 0.0961 -0.50618
0.497718 0.331652 0.0178106
0.497718 -0.416719 -0.181053
0.29249 0.707446 -0.319712
-0.222425 -0.185342 -0.50618
-0.332453 -0.706778 0.184802
0.412245 -0.677582 0.494655
0.497718 0.685177 -0.0633647
-0.499772 -0.300023 0.252195
0.497718 0.625278 0.335868
0.497718 0.398558 -0.449052
0.132262 -0.479538 0.494655
-0.499772 0.451254 0.045862
-0.012467 0.707446 -0.235944
0.497718 -0.607224 -0.083655
-0.141264 -0.200713 0.494655
0.27329 -0.706778 -0.254301
-0.499772 0.0606957 -0.231599
0.161728 -0.615449 -0.50618
-0.234167 -0.706778 0.241615
0.497718 0.358089 -0.247013
0.497718 0.443972 0.374603
0.497718 -0.487576 0.26015
-0.361392 -0.665759 -0.50618
-0.448981 0.707446 0.109771
-0.0677138 -0.706778 0.0445075
-0.122689 -0.307614 0.494655
-0.119449 0.707446 0.283697
-0.202628 0.707446 0.338339
-0.499437 -0.706778 -0.158173
0.151287 -0.706778 0.375656
-0.499772 -0.45182 -0.459618
-0.499772 0.702904 0.337682
-0.45369 0.225001 0.494655
0.497718 0.678922 -0.200419
-0.495506 -0.0672256 0.494655
-0.176531 -0.677193 0.494655
-0.128497 -0.706778 0.121889
0.0105838 0.707446 0.43984
0.0455949 -0.706778 0.470209
0.363466 -0.706778 0.30281
0.420354 -0.706778 -0.173348
-0.341421 -0.706778 0.0506967
0.143128 0.707446 -0.0214356
0.497718 0.217294 0.435854
-0.499772 -0.385095 0.0481617
-0.499772 0.701758 0.168458
-0.174993 0.0358903 -0.50618
-0.264489 0.680236 -0.50618
-0.156653 0.707446 -0.408553
-0.0259336 -0.311415 0.494655
-0.499772 0.459395 -0.48156
-0.499772 -0.62807 -0.427915
-0.499772 -0.112055 -0.353079
0.102049 -0.424791 -0.50618
-0.29588 -0.446035 -0.50618
0.325449 -0.360973 -0.50618
0.298217 -0.658801 0.494655
0.497718 0.272417 0.0548205
0.497718 0.210331 0.186802
-0.174064 0.707446 0.429807
0.211673 -0.285474 -0.50618
-0.499772 0.578067 -0.243332
0.134542 -0.258799 -0.50618
0.413751 -0.353767 -0.50618
-0.462787 -0.201844 -0.50618
-0.0708655 0.707446 0.422507
-0.476689 0.332463 -0.50618
-0.40669 -0.122968 -0.50618
0.0026331 0.707446 0.270242
-0.44771 0.707446 0.445646
-0.470483 0.0266944 -0.50618
-0.0792889 0.707446 -0.360873
-0.263896 -0.133031 -0.50618
-0.499772 0.606338 0.27099
-0.499772 0.2827 -0.0412642
-0.499772 0.704844 0.262568
0.00177915 -0.0199563 0.494655
0.111835 -0.706778 0.140715
0.433714 -0.642771 -0.50618
-0.499772 0.141378 -0.457825
0.497718 0.467231 -0.443858
-0.499772 0.660533 -0.457198
-0.44925 0.707446 -0.109152
-0.499772 -0.143005 -0.100682
0.497718 -0.290603 -0.0620222
0.091058 -0.334923 0.494655
-0.185007 -0.706778 -0.00913068
-0.223863 -0.364857 0.494655
-0.00329294 -0.706778 -0.0744552
-0.499772 0.397094 -0.247603
-0.499772 -0.0796248 0.224556
0.403705 -0.358574 0.494655
0.497718 -0.466551 0.43206
0.0377991 -0.706778 0.0982927
-0.185673 -0.706778 0.203396
-0.360506 0.707446 0.0401037
-0.499772 -0.256491 0.373064
-0.422601 0.411709 -0.50618
-0.294341 -0.706778 0.480074
-0.212961 0.707446 -0.225349
-0.499772 0.287772 -0.367843
0.497718 -0.230878 -0.013469
-0.499772 0.105912 -0.0587662
0.410491 0.433005 0.494655
-0.429378 0.0543128 0.494655
-0.485397 -0.411043 -0.50618
0.497718 0.648762 -0.126501
-0.499772 0.658555 -0.00488077
-0.155551 0.289864 -0.50618
-0.499772 0.177885 -0.378979
0.236574 -0.706778 0.22391
0.289135 0.406391 -0.50618
-0.499772 -0.00996505 -0.278733
-0.320971 -0.706778 -0.44921
0.497718 0.0482557 0.313652
0.497718 -0.580012 0.0486641
-0.444558 -0.706778 -0.245629
0.107929 -0.111149 0.494655
-0.499772 0.209244 0.222653
0.497718 -0.366294 0.44579
0.497718 0.551144 -0.359291
0.365721 0.0345815 0.494655
-0.499772 0.00691246 -0.125869
0.26145 -0.575147 -0.50618
0.497718 -0.105219 0.441086
-0.351337 0.707446 0.18253
-0.499772 0.272661 -0.446768
-0.195517 0.353055 0.494655
-0.369494 0.529846 0.494655
-0.0944168 -0.0972778 0.494655
0.497718 -0.38912 -0.442859
0.168303 -0.507368 -0.50618
-0.296218 0.707446 0.339884
0.169186 0.267772 0.494655
-0.499772 0.628514 0.163692
0.497718 -0.205975 -0.168279
-0.25528 -0.706778 -0.129822
0.188639 0.0686603 0.494655
0.310604 0.0917796 0.494655
-0.427915 -0.688525 0.494655
-0.499772 -0.315332 -0.346863
0.0860485 0.415868 0.494655
-0.29095 -0.646585 0.494655
-0.499772 -0.244518 -0.172619
0.497718 0.441182 -0.0813434
-0.499772 -0.578037 -0.319935
-0.425107 -0.412884 0.494655
-0.499772 0.462755 0.383366
0.497718 -0.00989852 -0.356856
0.103971 0.216577 -0.50618
-0.499772 -0.541226 -0.26448
-0.499772 0.209094 -0.228353
-0.499772 0.193601 -0.105297
-0.499772 0.275378 0.150302
-0.499772 -0.658103 0.333679
0.497718 0.142269 -0.230727
0.487739 -0.706778 0.479711
-0.499772 0.572837 0.200781
-0.103544 -0.398414 0.494655
0.00971198 0.707446 0.00706465
0.448599 -0.312359 0.494655
-0.499772 -0.279096 -0.436767
-0.499514 -0.478125 0.494655
0.0383383 0.29915 -0.50618
0.263843 -0.706778 -0.025038
-0.0416007 -0.569856 -0.50618
0.497718 -0.520798 -0.298383
-0.499772 -0.128925 0.180773
-0.499772 0.201852 0.343869
-0.499772 -0.451581 -0.184751
0.497718 0.42302 0.438742
-0.256887 0.707446 -0.278197
0.216543 0.575013 0.494655
0.321432 -0.293789 0.494655
0.0244516 0.707446 0.165828
0.497718 0.677862 -0.443924
0.497718 -0.449765 0.0765676
0.497718 0.424877 0.315266
0.014932 0.656926 0.494655
0.255727 0.25237 0.494655
-0.499772 0.488167 -0.0456332
0.373376 -0.706778 -0.0801002
0.0732968 -0.233514 0.494655
-0.499772 -0.308649 -0.281788
-0.373797 0.707446 -0.436787
-0.030962 -0.600838 0.494655
0.350493 -0.0875815 -0.50618
-0.158719 -0.429256 0.494655
0.497718 -0.665877 0.107404
0.497718 0.56993 0.219983
-0.220266 -0.3112 -0.50618
0.451808 -0.310854 -0.50618
0.408916 0.469214 -0.50618
0.160505 -0.390991 -0.50618
0.0764584 -0.706778 0.367341
-0.183067 -0.490154 0.494655
0.329628 -0.46595 -0.50618
0.312557 -0.706778 0.0115886
0.497718 -0.411081 0.345893
0.178468 0.707446 -0.473207
0.0916002 0.707446 -0.259374
0.187612 0.707446 0.213823
0.134085 0.465411 0.494655
0.497718 0.20416 -0.138456
0.121681 0.0979012 -0.50618
0.497718 -0.555861 -0.399928
-0.0160963 -0.706778 -0.41368
0.139066 0.672025 0.494655
0.497718 -0.592435 -0.271853
-0.0818458 -0.706778 -0.260756
0.144896 0.0270509 0.494655
0.422206 0.103873 -0.50618
-0.335195 -0.0466255 0.494655
0.243689 0.707446 -0.0754501
0.497718 -0.249694 0.428907
-0.0521977 0.445041 -0.50618
0.371151 -0.650549 -0.50618
-0.0718595 0.122525 -0.50618
-0.499772 -0.671367 -0.484067
-0.401291 -0.706778 0.100456
0.44739 0.247572 -0.50618
0.37047 0.707446 0.439345
-0.090006 0.589948 -0.50618
-0.499772 0.646169 -0.210463
0.371909 -0.119316 0.494655
0.0615221 0.703545 -0.50618
0.230095 -0.644749 0.494655
-0.25613 -0.0339045 0.494655
-0.43421 0.654635 -0.50618
-0.0375127 0.650542 -0.50618
0.497718 0.362938 0.2079
-0.0122535 0.333018 0.494655
-0.448758 -0.706778 -0.411983
0.497718 -0.0346165 -0.123979
-0.404652 0.707446 0.378484
0.497718 0.176181 0.364496
-0.148897 0.414828 -0.50618
0.00894839 0.241715 0.494655
0.497718 -0.347917 0.218056
-0.306819 0.373826 0.494655
-0.385143 0.642112 0.494655
0.348273 0.707446 -0.429036
-0.499772 -0.565327 -0.446933
0.487503 0.00026949 0.494655
0.0503373 0.233495 -0.50618
-0.208146 0.707446 0.474523
0.321822 -0.178026 0.494655
-0.15091 0.606845 -0.50618
0.497718 0.41283 0.119616
-0.254602 0.209428 -0.50618
0.327491 0.604609 0.494655
0.0455185 0.547543 -0.50618
0.288905 -0.583535 0.494655
-0.499772 0.121241 -0.172261
0.497718 0.147995 -0.461348
-0.499772 -0.173229 -0.049193
-0.201134 0.237797 0.494655
0.399349 0.707446 -0.496651
0.0326893 0.707446 -0.085075
-0.253794 0.0927318 -0.50618
-0.499772 -0.572633 0.426172
-0.499772 0.552322 -0.0403089
-0.499772 0.619025 0.0916825
0.497718 -0.274134 0.051794
-0.0640547 -0.645637 0.494655
-0.0739874 0.707446 -0.246882
0.241401 0.356053 0.494655
-0.055817 -0.197905 0.494655
0.497718 -0.586036 0.254035
-0.127389 0.124477 -0.50618
0.497718 0.0899555 -0.368514
-0.167965 0.162311 -0.50618
0.278943 0.707446 0.175874
-0.126512 -0.706778 0.230185
0.461341 0.707446 0.016614
-0.499772 -0.403565 -0.0823205
0.497718 -0.229269 -0.293342
0.208559 0.122598 -0.50618
0.339661 -0.522526 0.494655
0.334292 -0.706778 0.138015
0.0838779 0.707446 -0.315211
0.497718 0.561456 0.349332
-0.431686 -0.278395 0.494655
0.497718 -0.492164 -0.245826
0.497718 -0.124236 0.0481488
0.497718 0.445711 -0.342602
0.182305 0.356987 0.494655
-0.499772 0.307081 -0.133452
-0.210605 -0.0194479 -0.50618
0.497718 -0.0132409 -0.0183871
0.0240743 -0.668144 -0.50618
-0.499772 0.561984 0.450222
0.0714141 0.361147 0.494655
-0.499772 -0.199523 -0.139053
-0.369138 0.47432 0.494655
-0.456015 -0.573766 0.494655
-0.19461 0.707446 -0.173574
0.497718 -0.485082 -0.490268
-0.214065 0.707446 0.140732
-0.499772 0.103244 -0.284517
-0.499772 0.609813 -0.107809
0.0509838 0.092706 0.494655
-0.499772 0.650151 0.476841
0.0366304 -0.706778 -0.297077
0.497718 0.564104 0.109866
-0.043119 0.0758265 -0.50618
0.452364 0.22861 0.494655
0.429804 -0.481522 0.494655
-0.499772 -0.6373 -0.109064
0.33919 -0.0491566 0.494655
-0.499772 0.387009 -0.327003
0.497718 -0.395531 0.119164
-0.252211 -0.706778 -0.0263408
0.497718 -0.528679 0.143308
0.497718 -0.283499 -0.369588
-0.436388 -0.000936967 0.494655
0.497718 0.456123 0.0129172
0.233936 0.707446 0.014081
-0.436189 0.707446 -0.249631
0.254887 -0.00392183 0.494655
0.497718 0.653209 -0.365335
0.497718 0.302541 0.213367
-0.339696 0.249274 0.494655
0.309127 -0.706778 0.311904
0.389303 -0.451021 -0.50618
0.231212 -0.706778 -0.382017
0.11933 -0.706722 0.494655
-0.336473 0.707446 -0.213172
-0.499772 -0.214818 0.114404
0.497718 0.305987 0.106128
0.00885704 0.707446 0.326745
-0.499772 -0.381856 0.366841
0.497718 0.586597 -0.469831
-0.499772 0.445137 -0.0128176
-0.365431 -0.195845 0.494655
0.451857 0.50209 -0.50618
0.497718 -0.145498 -0.380429
-0.428687 0.550291 0.494655
0.439537 -0.706778 0.31688
0.392463 -0.706778 -0.349724
0.497718 0.482217 -0.254476
0.121431 -0.257832 0.494655
-0.246015 -0.613803 0.494655
-0.499772 -0.157928 0.0869193
-0.338967 0.128375 -0.50618
0.449969 0.671094 -0.50618
-0.0131402 0.707446 0.218885
-0.215293 -0.706778 -0.210012
0.21303 -0.280909 0.494655
-0.499772 -0.0954548 -0.177827
-0.131513 -0.706778 -0.0131165
-0.147961 0.236854 -0.50618
-0.499772 0.327025 0.349972
-0.298215 0.707446 0.211682
-0.102999 -0.706778 -0.378479
-0.499772 0.354347 0.0478578
-0.0483489 -0.108399 -0.50618
0.40277 0.707446 0.199564
-0.499772 0.42207 0.30227
0.155985 -0.706778 -0.308742
0.145273 0.480779 -0.50618
-0.499772 0.148703 0.319744
0.497718 0.374501 -0.0983569
-0.499772 -0.246663 0.262207
0.0464409 -0.446139 0.494655
0.219047 0.548618 -0.50618
0.256163 -0.706778 0.108472
-0.06726 0.219463 -0.50618
0.497718 0.13699 0.25394
0.497718 -0.120853 0.295933
-0.47394 -0.706778 0.0606463
0.497718 -0.347387 0.274132
0.497718 0.635251 -0.236031
-0.453159 -0.62104 -0.50618
-0.339741 0.707446 0.297824
-0.109878 0.707446 0.0441302
-0.499772 -0.00960063 0.307627
-0.172278 0.122574 0.494655
0.497718 0.067137 -0.146249
0.497718 -0.674114 0.191127
0.247117 -0.214111 0.494655
-0.1035 -0.649598 -0.50618
-0.135621 0.707446 0.13152
0.0823745 0.209417 0.494655
-0.183935 -0.0413329 0.494655
0.497718 0.275647 0.422394
0.497718 0.701134 0.434509
0.305338 0.707446 -0.0307744
-0.394206 -0.706778 -0.501067
-0.499772 -0.305521 -0.0182163
-0.499772 -0.437675 0.0924928
-0.0718893 -0.502723 0.494655
0.237582 -0.0794094 -0.50618
0.456308 -0.706778 0.211386
-0.244752 0.707446 -0.329501
-0.499772 -0.0731 0.400046
-0.427063 -0.706778 0.39172
0.213619 0.707446 0.145945
0.30782 -0.706778 -0.130201
0.355811 -0.706778 0.250782
0.497718 0.528548 -0.0960513
-0.499772 -0.503537 -0.483944
0.497718 -0.444606 0.0204509
-0.213075 0.411462 0.494655
0.0563815 0.707446 0.0309992
0.497718 -0.670414 0.0101488
-0.121205 -0.654948 0.494655
-0.180747 -0.663052 -0.50618
0.423232 0.707446 0.145195
0.247307 0.222966 -0.50618
0.113335 0.357163 -0.50618
0.333742 0.707446 0.349775
0.497718 0.0995247 -0.0963283
0.366855 -0.557352 -0.50618
-0.0563056 0.167872 0.494655
0.497718 -0.281589 0.188593
0.451709 0.707446 0.350218
-0.249423 0.574102 -0.50618
-0.442592 -0.706778 0.132216
-0.0448825 -0.706778 0.158029
0.249599 0.707446 -0.209551
0.095579 0.707446 -0.161219
0.0490197 -0.369887 0.494655
0.497718 -0.413922 -0.323609
0.307239 -0.706778 -0.215008
0.277 0.171987 0.494655
0.497718 -0.190989 0.24436
0.1463 -0.706778 0.0340208
0.166862 -0.0284531 0.494655
0.497718 -0.308079 -0.262161
-0.499772 -0.316395 0.487096
0.497718 -0.538745 0.0139698
-0.024044 -0.425106 -0.50618
-0.26376 0.150747 0.494655
0.225136 0.707446 0.458662
-0.11745 -0.410811 -0.50618
0.17151 0.707446 0.395708
0.497718 0.46919 0.163322
-0.447741 0.592049 -0.50618
-0.430503 -0.432673 -0.50618
-0.499772 -0.188724 0.357288
-0.226349 0.48886 0.494655
0.497718 0.700723 0.185717
0.184656 0.707446 -0.325691
-0.36032 0.194375 0.494655
0.497718 0.538965 -0.279414
0.0623205 -0.574621 -0.50618
-0.499772 -0.566778 0.287766
0.446258 -0.0638942 0.494655
0.497718 -0.294392 0.319602
0.105139 0.595797 0.494655
-0.499772 -0.422562 -0.271769
-0.499772 -0.271283 0.0529766
-0.499772 -0.379152 0.268621
-0.499772 -0.555469 -0.366187
0.168211 -0.706778 0.124343
0.462518 -0.706778 0.11053
0.497718 -0.387036 -0.225125
-0.0736776 -0.22752 -0.50618
0.497718 0.489718 0.478327
-0.449867 0.288385 -0.50618
-0.0764202 0.331713 -0.50618
0.334527 -0.706778 -0.346113
-0.499772 0.541353 -0.182414
0.497718 -0.705319 -0.140939
0.40253 0.543734 0.494655
-0.499772 -0.482965 -0.11245
-0.347742 0.565951 -0.50618
0.0551463 -0.706778 -0.128674
-0.213673 0.30528 0.494655
-0.201068 0.554784 -0.50618
0.497718 0.390825 0.0444142
-0.0309303 -0.254354 0.494655
0.217857 0.466865 0.494655
0.16348 0.283369 -0.50618
-0.499772 0.221483 -0.277851
-0.105506 -0.479006 -0.50618
0.149898 0.707446 -0.235436
0.497718 0.0926256 -0.442392
-0.0939014 0.264451 0.494655
-0.452991 0.707446 -0.458637
0.266691 0.707446 0.369995
-0.360093 0.0206085 -0.50618
-0.0814684 -0.316387 -0.50618
0.497718 -0.427839 -0.505561
0.376702 0.0172314 -0.50618
-0.340278 -0.186035 -0.50618
-0.176575 -0.281933 -0.50618
0.497718 -0.662169 -0.323243
0.104444 -0.706778 -0.354796
-0.160594 -0.0705362 -0.50618
-0.355972 0.337733 -0.50618
-0.296603 0.707446 -0.0413466
0.497718 0.261577 -0.302621
-0.499772 0.158541 0.222813
-0.499772 0.534896 -0.432764
-0.175918 0.0387024 0.494655
-0.117767 -0.706778 -0.44806
0.314762 -0.706778 0.492565
0.232878 0.641627 -0.50618
0.496934 0.377539 -0.50618
0.143618 -0.706778 0.282324
0.497718 -0.0256252 0.298475
0.497718 -0.30793 -0.152447
0.123351 -0.0581836 0.494655
0.497718 0.398577 0.247697
0.0168276 0.112567 -0.50618
0.0897691 -0.30577 -0.50618
0.15211 0.0228357 -0.50618
-0.499772 0.37092 0.253128
0.0869769 -0.0890491 -0.50618
-0.331059 -0.706778 -0.268378
-0.196714 -0.706778 -0.118565
-0.155108 -0.706778 -0.317192
0.323455 0.707446 0.135583
0.310171 -0.292185 -0.50618
-0.405011 0.525884 -0.50618
-0.258311 -0.482576 0.494655
-0.0657199 -0.703854 0.494655
-0.499772 0.488111 -0.296862
0.192148 -0.706778 0.346457
0.157009 -0.706778 -0.0654201
-0.499772 0.470867 0.24054
-0.408705 0.707446 0.158805
0.420115 -0.706778 0.0279418
-0.292854 -0.649322 -0.50618
0.3151 0.51045 0.494655
-0.499772 0.170889 0.097266
-0.337349 -0.505877 -0.50618
-0.151937 0.658504 0.494655
-0.449248 -0.517697 0.494655
0.497718 0.642539 0.493409
-0.248402 -0.706778 -0.467184
-0.340991 0.707446 -0.0676325
-0.402607 0.707446 0.314923
0.497718 0.323427 -0.110606
-0.338472 0.592129 0.494655
-0.499772 -0.341346 -0.220208
0.184025 -0.143371 -0.50618
-0.499772 0.00651825 0.0489789
0.322302 0.0651779 -0.50618
-0.012176 -0.324852 -0.50618
0.497718 -0.0369351 0.116686
-0.499772 0.173971 0.418356
-0.293732 0.707446 -0.17262
-0.42252 -0.0135606 -0.50618
0.497718 -0.0966552 0.241919
-0.499772 0.0450762 -0.0932709
0.029477 0.18503 -0.50618
0.290237 -0.186743 -0.50618
0.444314 0.197926 -0.50618
0.497718 0.521634 -0.462931
-0.242511 0.261543 -0.50618
-0.332705 0.0560774 0.494655
0.244542 -0.470096 0.494655
0.0940697 -0.616759 0.494655
0.227893 -0.357339 -0.50618
0.333841 0.707446 0.476321
0.422528 -0.403121 -0.50618
0.27036 0.707446 0.419414
0.497718 -0.598194 -0.220934
-0.430602 -0.706778 0.307437
-0.499772 -0.59797 -0.139085
0.497718 -0.228608 0.473663
0.218106 -0.706778 -0.00617957
0.405161 0.707446 0.00654235
-0.355402 0.616825 -0.50618
0.0639102 -0.706778 -0.397522
0.497718 -0.577407 -0.478709
-0.311097 -0.336494 -0.50618
-0.499772 0.690392 0.431478
-0.326778 -0.3492 0.494655
-0.499772 0.234782 0.17833
0.442986 -0.535464 0.494655
0.3462 0.707446 -0.364557
-0.499772 -0.24618 -0.242664
-0.245534 0.468686 -0.50618
0.00451677 0.707446 -0.189742
0.148588 0.572672 0.494655
-0.312993 0.707446 0.479015
0.497718 -0.559543 0.423354
-0.499772 -0.307207 0.328307
-0.240359 -0.301841 0.494655
0.489048 0.366544 0.494655
-0.302189 0.707446 -0.25929
0.0984993 -0.168831 -0.50618
-0.459489 -0.706778 0.444315
0.427848 0.707446 -0.124821
-0.283294 -0.706778 0.143829
-0.447417 0.595598 0.494655
-0.37766 -0.0761902 0.494655
0.354584 0.707446 0.0286061
-0.00406348 -0.461224 0.494655
-0.246317 0.707446 0.0807976
-0.499772 -0.407119 0.149028
-0.499772 0.272324 0.385209
-0.499772 -0.103542 0.334877
0.240916 -0.117525 0.494655
-0.0189054 -0.706778 0.0417729
-0.499772 -0.526612 -0.204063
0.497718 -0.174726 -0.117559
0.497718 -0.255499 0.230294
0.288845 0.651942 0.494655
-0.296325 0.55651 -0.50618
-0.499772 -0.330709 -0.460256
0.426712 0.0627491 0.494655
0.0659925 -0.706778 -0.176215
-0.499772 0.0799275 0.143458
0.497718 -0.164825 -0.0381631
-0.499772 0.35129 -0.0270677
0.497718 0.264445 0.168286
-0.499772 0.387862 -0.182122
0.00653349 0.437801 0.494655
-0.499772 0.237852 -0.408853
0.0954211 0.31012 0.494655
0.239759 -0.706778 -0.135993
-0.499772 -0.645992 0.139416
-0.28587 0.392782 -0.50618
0.0941839 -0.706778 0.0508387
-0.499772 -0.406034 0.408997
-0.147622 0.707446 0.323237
0.497718 -0.45683 0.384506
0.497718 -0.516226 0.459267
-0.499772 -0.33595 0.132806
-0.478304 0.707446 -0.369464
-0.494612 -0.0111884 0.494655
-0.0194595 0.707446 0.138146
0.258639 0.707446 0.0742827
-0.306568 0.0316066 -0.50618
-0.244076 0.707446 0.432624
-0.247164 0.658937 0.494655
-0.461807 -0.706778 0.351906
-0.0898997 0.707446 0.494209
-0.499772 -0.670432 -0.0272464
0.497718 0.559769 -0.416366
0.497718 -0.327144 -0.47011
0.497718 -0.393116 -0.123501
0.104526 -0.524938 0.494655
0.451812 0.295629 -0.50618
-0.3123 -0.294487 0.494655
-0.22452 0.171695 -0.50618
-0.257435 -0.561719 -0.50618
-0.499772 -0.0676218 0.113703
-0.499772 0.27723 -0.192229
0.1798 -0.706778 0.428409
0.497718 -0.204724 0.133115
0.438209 -0.0453436 -0.50618
-0.113298 0.433428 0.494655
-0.0686442 0.707446 -0.0337931
-0.0438587 -0.399888 0.494655
0.497718 -0.413888 0.468394
0.171562 0.707446 0.114553
-0.499772 0.456818 -0.361046
0.299878 0.146418 -0.50618
-0.499772 0.452172 -0.245516
0.394236 -0.224907 0.494655
-0.276308 0.0383092 0.494655
0.171197 0.5449 -0.50618
-0.182837 -0.706778 0.0846831
0.497718 0.534775 -0.00957056
0.223847 0.520764 0.494655
-0.135563 0.707446 -0.365123
-0.388206 -0.706778 -0.206808
0.0197191 0.486809 0.494655
0.497718 0.249463 -0.256297
0.497718 -0.0337407 -0.175238
0.497718 -0.618973 0.116823
0.256184 0.516363 -0.50618
-0.493925 -0.395538 0.494655
-0.368609 -0.0295494 -0.50618
-0.499772 0.577789 0.38397
-0.499772 0.600943 -0.455037
0.0585959 0.707446 0.27051
-0.470954 0.707446 -0.194135
0.497718 0.076185 -0.248201
0.108241 0.707446 0.197859
0.332607 -0.409707 0.494655
0.497718 0.290217 -0.354805
-0.363663 0.388479 -0.50618
0.497718 -0.251513 0.151642
0.497718 0.173624 -0.503516
0.497718 -0.559916 -0.1898
-0.140509 0.707446 0.0841459
-0.499772 -0.485882 0.180342
0.497718 -0.195923 0.335582
0.360803 -0.682061 0.494655
-0.370864 0.421336 0.494655
0.497718 0.205158 0.254473
-0.499772 0.510703 0.128096
0.446387 0.169435 0.494655
0.370211 -0.706778 0.412939
-0.13863 -0.706778 0.414152
-0.499772 -0.18657 0.000621276
-0.109796 -0.0623343 -0.50618
-0.163794 0.0820187 -0.50618
-0.0396714 0.00858561 0.494655
0.402473 0.707446 -0.425657
-0.499772 -0.531092 -0.0529316
-0.499772 0.111773 0.000543825
0.40852 0.123252 0.494655
0.497718 0.501514 -0.177153
0.179083 -0.239399 -0.50618
-0.337989 0.136081 0.494655
-0.499772 -0.453145 -0.0120411
-0.499772 0.381057 0.425459
0.0334449 -0.529847 0.494655
0.497718 -0.136015 -0.280767
-0.267468 -0.706778 0.44117
-0.499772 -0.360911 -0.371139
0.497718 0.488096 -0.363503
0.146749 -0.142132 0.494655
-0.145591 0.372293 0.494655
0.384651 -0.56997 0.494655
-0.499772 -0.369341 -0.262076
-0.126992 0.707446 0.426798
0.497718 -0.420798 0.290872
0.472874 0.0531401 0.494655
-0.19619 -0.115352 0.494655
-0.113123 0.311473 0.494655
-0.208366 0.707446 -0.105221
0.292556 -0.706778 0.201034
-0.0139386 0.539319 -0.50618
-0.360124 0.707446 -0.48757
-0.365662 -0.570331 -0.50618
-0.463738 -0.706778 0.263545
-0.40968 0.707446 0.249736
0.497718 0.0497094 -0.0378781
-0.170606 0.186832 0.494655
-0.499772 -0.186998 0.270775
0.440895 0.46878 0.494655
0.497718 0.0980611 0.187149
-0.297218 0.506608 -0.50618
-0.377001 -0.483994 0.494655
-0.357784 0.173145 -0.50618
0.497718 -0.0693804 -0.33398
-0.0430316 0.275211 -0.50618
-0.499772 -0.322391 -0.175134
-0.499772 0.376309 -0.408261
0.497718 -0.0639498 -0.263196
0.294679 -0.706778 0.382713
0.172227 -0.587842 0.494655
0.186149 -0.349872 0.494655
-0.499772 0.0015256 0.361426
-0.351639 0.707446 -0.276244
0.338197 0.657853 -0.50618
0.45894 0.707446 0.396363
-0.36965 0.0798093 -0.50618
-0.446532 -0.706778 -0.468114
0.476134 0.707446 -0.414732
-0.423163 -0.572748 -0.50618
0.497718 0.494955 -0.502029
-0.426179 -0.233171 -0.50618
-0.334141 -0.063071 -0.50618
-0.439068 -0.706778 -0.309978
0.389246 0.655229 0.494655
0.497718 -0.368649 0.374812
0.379061 -0.196211 -0.50618
0.497718 0.571688 -0.222738
0.497718 -0.592307 -0.128023
-0.337789 0.273761 -0.50618
-0.221814 0.605222 0.494655
-0.0634222 -0.706778 0.389396
-0.0398233 0.641129 0.494655
-0.0378423 0.707446 -0.0938975
0.0181343 -0.335591 0.494655
-0.499772 0.553473 0.0388367
0.404142 0.418607 -0.50618
-0.499772 0.06545 0.253405
-0.356695 -0.706778 0.234596
-0.499772 -0.575299 0.044016
0.497718 -0.405783 -0.0547348
-0.499772 -0.129468 -0.276479
-0.320612 -0.706778 -0.153928
-0.0358296 -0.706778 0.25017
0.497718 -0.534261 0.300958
-0.499772 -0.094292 -0.0137917
0.497718 -0.178007 -0.210705
-0.499772 -0.61239 0.338551
-0.0423752 0.604832 -0.50618
-0.0921786 -0.706778 0.334438
-0.499772 0.180851 0.0163221
-0.499772 0.328758 -0.465017
-0.499772 -0.462674 -0.379453
0.0183399 -0.123451 0.494655
-0.499772 -0.524301 0.366948
-0.378791 -0.706778 0.474802
-0.241383 0.707446 0.313904
-0.283819 -0.401835 -0.50618
-0.499772 -0.190481 0.461987
0.374333 0.345455 0.494655
0.497718 0.323899 -0.385856
-0.499772 0.167518 -0.143369
0.325213 -0.0407312 -0.50618
0.131692 0.110114 0.494655
-0.174099 -0.39408 -0.50618
0.497718 -0.657083 0.37238
-0.499772 -0.419 0.246216
-0.0146317 0.707446 0.0457468
0.497718 0.664872 0.311592
0.251043 -0.533073 0.494655
-0.140509 -0.706778 -0.183707
0.497718 -0.218745 -0.362931
0.134523 -0.35994 0.494655
0.447577 0.707446 -0.259443
0.428166 -0.435944 0.494655
0.0922506 0.669858 -0.50618
-0.171905 0.647309 -0.50618
-0.0375117 0.557004 0.494655
0.497718 -0.0641812 0.363645
0.497718 0.549253 0.394881
-0.381562 -0.397589 -0.50618
-0.0486091 -0.706778 -0.0790953
-0.374308 -0.706778 0.400231
-0.189081 -0.706778 0.304007
-0.113776 -0.600454 -0.50618
-0.275192 -0.00529511 -0.50618
-0.499772 0.551786 0.295871
0.0846186 0.646714 0.494655
-0.0743012 -0.30007 0.494655
-0.499772 0.703389 0.217243
0.017343 -0.252892 0.494655
-0.0773963 -0.0165405 0.494655
-0.499772 0.622594 0.369412
0.108552 -0.706778 0.24718
-0.498888 0.222583 0.494655
0.279816 -0.329644 0.494655
0.31947 0.454153 -0.50618
-0.499772 0.278188 -0.287491
-0.499772 -0.180175 -0.49191
-0.214826 -0.0747354 -0.50618
0.497718 0.145215 0.47017
0.497718 0.40922 -0.249109
-0.349039 0.68118 0.494655
0.22155 0.353359 -0.50618
0.165306 -0.706778 -0.187092
0.0228937 -0.706778 -0.252073
-0.499772 -0.5952 0.494536
0.0453914 0.0290666 -0.50618
-0.4245 0.352758 0.494655
0.497718 0.0997303 0.279227
0.349016 -0.706778 -0.0420079
-0.499772 -0.0504425 -0.337997
-0.127817 -0.128249 0.494655
-0.499772 -0.0659785 -0.251839
-0.499772 0.332386 -0.361858
-0.0436135 -0.706778 -0.229725
0.497718 0.320528 -0.308921
0.473102 -0.706778 -0.460963
0.449101 -0.70602 -0.50618
0.173362 -0.706778 0.213856
-0.499772 -0.660417 0.43343
-0.499772 0.533795 0.168956
0.166066 0.707446 0.0246283
0.0540689 0.707446 0.0788951
-0.0887826 -0.706778 0.426453
0.467329 -0.583504 0.494655
-0.344327 -0.557983 0.494655
-0.475535 0.238482 -0.50618
0.260817 -0.706778 0.2961
0.233462 0.309956 -0.50618
-0.34974 -0.706778 -0.0959529
-0.499772 0.0312144 0.438477
0.228217 0.707446 -0.464903
-0.458305 -0.0921094 0.494655
0.497718 -0.50271 0.353167
0.497718 0.0881582 -0.323809
0.497718 -0.0579811 -0.0183434
0.306996 0.281428 -0.50618
0.497718 -0.662942 -0.455049
-0.470425 -0.0320199 -0.50618
0.296769 0.281923 0.494655
0.497718 0.283498 -0.49859
0.0179685 -0.706778 0.229986
0.175101 0.707446 -0.146669
-0.166061 0.707446 -0.0341168
0.497718 0.197701 0.144012
0.370635 -0.706778 0.0683378
0.497718 0.111714 0.120926
0.450207 0.707446 0.0973693
0.497718 0.0065669 -0.223208
-0.184732 0.707446 0.22474
0.497718 0.459507 0.213529
0.497718 0.636691 0.0374307
-0.355692 -0.706778 -0.476974
-0.499772 0.311184 0.486193
-0.228311 0.707446 -0.0182491
-0.179111 -0.331693 0.494655
0.10421 -0.706778 -0.0703552
-0.0433315 0.364752 0.494655
-0.499772 0.486287 0.448895
0.497718 -0.064766 0.27492
0.497718 0.0321686 0.4093
-0.499772 0.0493252 0.341763
0.371535 0.707446 0.111059
0.454878 -0.166895 0.494655
0.485039 0.0115705 -0.50618
-0.0541945 0.177166 -0.50618
0.269069 -0.706778 -0.0817565
0.497718 0.595387 -0.358218
-0.286589 -0.706778 0.0535128
-0.499772 -0.401051 -0.169644
-0.392292 -0.706778 -0.399898
-0.198869 -0.224894 0.494655
0.315383 0.326415 -0.50618
-0.369882 -0.433695 0.494655
-0.250282 -0.672656 -0.50618
-0.382706 0.139556 0.494655
-0.466751 0.392422 0.494655
-0.499772 0.543907 -0.279208
-0.23064 -0.572236 0.494655
0.426667 -0.706778 0.0759916
0.497718 -0.0963683 -0.106774
-0.379456 -0.244559 -0.50618
-0.499772 -0.360382 0.0026241
