ply
format ascii 1.0
comment Created by Open3D
element vertex 1679
property double x
property double y
property double z
end_header
0.503959 0.53318 -0.363008
0.147384 0.62321 -0.271468
0.0292598 0.62321 0.144782
-0.366518 0.668261 -0.42873
-0.503092 0.528893 -0.166986
-0.419172 -0.497668 0.0731227
0.420038 -0.0443636 -0.326234
-0.498057 0.197308 0.464289
0.503959 0.222053 0.142115
-0.0834901 -0.0721548 0.490539
-0.419172 -0.0574727 -0.1002
-0.309936 0.354049 0.490539
0.00358547 -0.753093 -0.309662
0.420038 0.437165 0.128946
-0.374096 -0.585251 -0.377468
0.383236 -0.753093 -0.165648
0.392831 -0.558565 0.408297
-0.137853 -0.619413 0.408297
0.331607 0.606335 0.408297
-0.0841658 0.698739 0.486529
0.390294 0.62321 0.0633451
0.054419 -0.585251 -0.135364
0.503959 -0.605269 0.18845
0.414325 0.707132 -0.130713
0.420038 -0.0980646 0.0171481
0.0454048 -0.585251 0.175457
0.420038 -0.210232 0.282749
-0.242728 -0.753093 0.0622704
0.496631 -0.482817 -0.42873
0.161472 -0.390731 0.490539
0.503959 -0.421575 0.112191
0.454559 -0.0543914 0.490539
0.488005 -0.357163 0.490539
-0.204598 -0.379912 0.408297
-0.292791 0.253032 -0.42873
-0.419172 -0.179995 0.0311063
0.273697 -0.753093 0.333619
-0.419172 0.241355 -0.0566283
-0.348934 0.460458 -0.42873
-0.0727235 0.155866 -0.42873
0.378875 0.62321 -0.272826
0.13171 0.223133 -0.514834
0.154986 -0.585251 -0.513368
0.503959 -0.0184282 0.240405
0.403253 -0.753093 0.27303
-0.399691 0.707132 -0.0275742
0.332049 -0.3382 0.408297
0.278986 -0.72179 -0.42873
-0.20185 0.707132 0.0897011
-0.467104 -0.753093 -0.295022
0.503959 0.423263 0.317854
-0.411418 -0.2527 0.490539
-0.419172 -0.342979 0.258783
0.0100819 0.378366 -0.514834
0.420038 0.425716 -0.353804
0.420038 -0.222805 -0.0894029
-0.276455 0.62321 -0.296736
-0.419172 0.391854 0.301249
0.266756 0.62321 0.248957
0.130541 -0.191819 -0.514834
-0.419172 -0.322234 -0.377193
0.17041 -0.585251 0.473822
-0.126724 0.393125 -0.514834
-0.164573 0.707132 -0.276895
-0.202997 -0.753093 0.323911
0.0181426 -0.753093 0.298505
-0.251261 0.62321 0.367471
0.18371 -0.585251 -0.0307746
0.420038 -0.345923 0.25769
-0.419172 0.310603 0.056166
-0.317546 -0.585251 0.192126
-0.403976 0.62321 -0.128342
0.196837 0.140782 -0.42873
0.403736 -0.753093 0.0622586
0.397655 0.207019 0.408297
0.110185 0.501462 0.408297
0.079395 -0.205327 0.490539
0.420038 0.145531 -0.198345
-0.419172 -0.484955 -0.290922
-0.503092 0.0667728 0.246036
0.420038 -0.428209 0.36553
0.367424 0.317392 -0.42873
0.498923 0.168409 0.488493
0.380241 -0.427924 0.490539
-0.0327383 -0.585251 0.476341
-0.0969617 -0.203242 -0.42873
0.420038 0.0893148 -0.344308
0.420038 -0.0755099 -0.181087
0.178929 -0.133192 0.408297
-0.0184127 0.62321 -0.203295
-0.334533 0.590319 0.490539
-0.503092 0.649769 -0.267171
-0.419172 -0.311266 0.0734852
-0.30878 0.094042 0.408297
-0.383313 -0.117761 -0.42873
-0.372599 -0.629801 0.408297
0.420038 -0.556109 0.107192
0.00350765 0.62321 -0.0131609
-0.503092 -0.636976 -0.138306
0.159046 -0.753093 -0.104768
-0.503092 -0.703368 -0.0058469
0.297453 0.0157974 0.490539
-0.503092 -0.621216 0.27095
0.258278 0.62321 -0.390894
0.492782 0.415775 0.490539
-0.503092 -0.156706 -0.0728058
-0.0626425 -0.396513 0.490539
0.280183 0.185133 -0.514834
0.420038 -0.303162 0.0997486
-0.503092 0.167333 -0.155015
-0.00441709 0.707132 -0.41644
-0.181873 -0.585251 -0.202218
0.503959 -0.371863 -0.0748389
-0.503092 0.668268 0.0480837
-0.0529043 0.115206 0.408297
-0.503092 0.066432 0.0978494
-0.21217 -0.194379 -0.514834
-0.503092 -0.11376 0.146734
0.311661 -0.216623 0.408297
-0.503092 -0.408508 0.0415902
0.182786 0.707132 -0.166388
0.122556 0.572241 -0.514834
-0.4957 -0.521271 0.490539
-0.117009 -0.753093 -0.122687
-0.419172 0.0211847 0.0178544
0.202794 -0.753093 0.0906379
-0.300795 0.605089 -0.514834
-0.295424 0.62321 0.14261
0.30242 0.130998 0.408297
0.155507 0.707132 0.223329
0.0560414 0.022873 -0.514834
-0.251824 0.286006 0.408297
-0.193777 -0.0172018 -0.514834
-0.419172 -0.336939 0.38231
-0.433392 -0.0578992 0.408297
-0.503092 0.333605 -0.229049
-0.212012 -0.048225 0.490539
-0.48719 -0.553235 -0.42873
-0.419172 0.439489 -0.0331929
-0.419172 0.58444 0.0831584
0.3563 -0.561237 -0.514834
0.503959 0.620365 0.265575
-0.419172 -0.324983 -0.103859
-0.419172 -0.154112 0.283287
-0.419172 -0.175313 -0.301747
0.21039 0.62321 0.022629
-0.419172 0.44144 -0.319079
-0.191652 -0.585251 0.198831
0.420038 -0.347468 -0.25253
-0.419172 0.513585 0.242163
0.420038 0.51878 -0.199827
0.503959 0.217798 -0.381299
-0.419172 0.583622 0.390634
0.350451 -0.158171 -0.42873
-0.403926 0.707132 -0.300121
0.123431 0.153711 0.490539
-0.503092 0.308494 0.315132
0.266982 0.506391 0.408297
-0.503092 0.670836 0.196449
0.503959 -0.0119042 -0.0396243
-0.236241 -0.227285 0.490539
0.503959 -0.255165 -0.322824
0.420038 -0.454849 -0.33934
0.424242 -0.753093 -0.32763
-0.0930993 -0.32638 -0.514834
-0.453273 0.109898 -0.42873
-0.194622 -0.410504 -0.514834
0.420038 0.424288 -0.013877
0.282488 0.698739 0.486248
0.144719 -0.585251 0.105344
0.170815 -0.487393 0.408297
-0.0601168 -0.555703 -0.42873
-0.394775 -0.585251 -0.135422
0.503959 -0.473134 0.294657
0.503959 -0.174679 0.0921007
0.32518 -0.315182 -0.514834
-0.114073 0.707132 0.266164
-0.0723718 0.431597 0.490539
0.0212721 -0.698586 0.408297
-0.0813663 -0.753093 0.22589
-0.0560643 -0.585251 -0.0160767
0.307086 -0.564124 0.490539
-0.189671 0.116876 0.490539
0.413357 0.0790712 -0.514834
0.503959 0.583461 -0.0162924
-0.398195 0.177522 0.408297
0.420038 0.361898 -0.256815
-0.0570838 -0.248779 0.408297
0.00489263 0.158349 -0.514834
0.00760743 0.50437 -0.514834
0.302837 -0.453875 -0.514834
0.417907 0.62321 -0.509423
-0.246921 0.157021 -0.514834
0.0828693 0.307181 0.408297
0.0354292 -0.750122 -0.42873
-0.0530274 0.571738 0.490539
0.503959 0.107642 -0.0281504
0.498923 -0.243588 0.430388
0.503959 0.290833 0.317233
0.161456 0.698739 0.441933
0.0638824 -0.478875 -0.42873
-0.260111 0.62321 -0.129836
0.324351 0.44602 -0.42873
0.503959 -0.158367 0.222791
0.0581957 0.62321 -0.371539
-0.503092 -0.397049 -0.130493
0.210279 0.402506 -0.42873
-0.139892 0.62321 0.0446941
0.442014 0.707132 -0.330785
-0.200824 0.440786 0.408297
0.498923 0.0522985 0.40908
0.257312 -0.159128 0.490539
0.420038 0.0688739 0.0553061
0.503959 -0.644222 -0.374396
0.0886633 0.0263995 0.408297
0.274597 -0.0385459 -0.42873
-0.503092 -0.0216621 -0.314389
-0.074798 0.262718 0.490539
-0.503092 0.0100595 -0.0671151
-0.0401764 0.707132 0.383332
-0.277656 0.447984 -0.514834
0.41019 -0.585251 -0.214343
-0.419172 0.23798 0.266962
-0.503092 -0.273223 0.213094
0.503959 -0.73761 0.319753
-0.344838 -0.753093 -0.0855119
0.210016 -0.585251 0.330739
0.420038 0.286624 -0.011971
0.211714 -0.341581 -0.514834
0.273178 0.406012 0.490539
0.25411 0.337734 -0.514834
0.503959 -0.680402 -0.131302
-0.122759 0.322626 -0.42873
-0.191498 -0.585251 -0.495874
0.503959 -0.15021 -0.202517
-0.0803163 -0.0477994 -0.42873
0.503959 0.393318 0.186318
-0.269026 0.318376 -0.514834
-0.105265 0.62321 -0.0780777
0.420038 -0.538688 -0.0852824
0.503959 0.308581 -0.208727
0.420038 0.288249 0.116465
-0.0544941 0.707132 0.173969
-0.503092 0.590528 0.277916
0.274649 -0.753093 -0.179225
-0.503092 0.277438 -0.135224
-0.285961 -0.350384 -0.514834
0.0843094 -0.330394 -0.514834
0.401626 0.305652 0.490539
0.17841 0.479526 0.490539
0.391924 0.62321 0.202468
0.131095 -0.0620206 -0.514834
0.428988 0.593527 0.490539
-0.419172 0.277741 0.160193
-0.231411 0.500217 -0.42873
-0.362664 0.0482775 -0.42873
-0.503092 0.237244 -0.278714
0.414773 -0.144232 -0.514834
0.503959 0.608531 -0.125697
0.372428 -0.125036 0.490539
0.387591 0.62321 -0.044916
0.0665864 -0.210557 -0.42873
-0.40247 0.707132 0.233564
-0.503092 -0.244316 0.0861017
-0.418931 -0.183353 -0.514834
0.503959 0.482938 -0.142166
-0.321446 -0.753093 0.149205
0.420038 0.196731 0.282796
-0.503092 -0.283614 -0.168532
-0.0194312 -0.0229289 0.408297
0.503959 0.00737031 -0.146939
-0.419172 0.565306 -0.395929
-0.393368 -0.468649 -0.42873
-0.389431 0.10876 0.490539
0.1632 0.336603 0.490539
0.0127849 -0.437567 0.408297
-0.503092 0.393562 0.380785
0.391154 -0.741536 -0.42873
0.29271 0.62321 0.106836
-0.503092 -0.529044 0.369309
0.420038 -0.0779056 0.274047
0.503959 -0.287912 -0.42421
-0.503092 -0.145922 0.348369
-0.0145148 0.0372055 -0.42873
-0.219475 -0.753093 -0.189918
0.282425 -0.385993 0.490539
-0.338811 -0.671449 -0.42873
-0.0645298 -0.585251 -0.136286
0.0566906 0.707132 -0.180228
-0.503092 0.206969 0.140551
-0.224301 0.707132 -0.185217
0.420038 0.436195 0.380531
0.435942 -0.063577 -0.42873
0.503959 0.112539 0.137624
0.276047 -0.585251 0.179374
-0.364552 0.263946 0.490539
-0.354708 0.707132 0.3583
0.420038 0.00390687 0.161611
0.219684 0.522734 -0.42873
-0.108877 0.707132 -0.428032
0.272186 -0.279746 -0.42873
-0.503092 -0.118687 -0.374705
-0.419172 0.0386654 -0.332013
-0.263621 -0.286237 0.408297
0.420038 0.181615 -0.0835192
-0.095423 0.707132 -0.193575
-0.135482 -0.537162 0.490539
0.233049 0.17672 0.490539
-0.277353 -0.129893 0.490539
-0.503092 0.483974 -0.261265
0.0438701 0.15438 0.408297
-0.503092 0.441453 0.207526
0.449003 0.707132 0.0833899
0.503959 -0.465157 -0.136929
-0.267147 -0.238947 -0.42873
0.0354469 -0.585251 -0.247558
0.503959 0.160496 -0.294278
-0.280304 -0.460689 0.408297
-0.419172 0.138882 -0.209779
-0.14743 -0.4452 -0.42873
0.0507753 -0.386219 0.490539
0.503959 -0.39528 0.212877
-0.476405 0.405301 -0.42873
0.503959 -0.133532 -0.33135
-0.262615 -0.585251 -0.118252
-0.497669 0.297485 0.490539
0.503959 -0.659736 0.0720253
-0.264394 -0.657222 0.408297
0.184111 -0.585251 -0.366524
-0.324328 -0.585251 0.488765
0.0876517 0.62321 0.229868
0.135285 0.279879 -0.42873
0.173546 -0.313369 0.408297
-0.373183 0.413676 0.408297
-0.319431 0.707132 0.0857166
0.503959 -0.459349 -0.263506
-0.478304 -0.662651 -0.42873
-0.349136 0.250526 -0.514834
0.354246 -0.476462 -0.42873
-0.503092 0.368693 0.06836
-0.283053 -0.0577593 0.408297
-0.0468541 -0.168135 0.490539
-0.17274 0.179106 -0.42873
0.0628136 0.540614 0.490539
0.0730266 0.390574 -0.42873
-0.164574 -0.426445 0.490539
-0.0603798 0.287292 -0.514834
-0.193183 0.707132 0.37443
0.348463 0.707132 -0.222882
0.420038 0.600779 0.336164
0.503959 -0.534517 0.397404
-0.503092 -0.473691 0.156419
-0.503092 0.493838 0.0747766
-0.105422 -0.753093 -0.392672
0.503959 0.539713 0.200665
-0.340502 -0.585251 0.0872631
0.420038 -0.369016 -0.14104
0.503959 0.372986 -0.0663241
-0.503092 -0.386863 -0.274577
0.0146959 -0.585251 0.274539
-0.395723 -0.401593 0.490539
0.503959 0.659046 0.360368
0.356265 0.707132 0.407371
-0.00606508 -0.441434 -0.514834
0.420038 0.514938 0.0467312
-0.171271 0.0850032 -0.514834
0.503959 -0.482724 0.0207771
-0.419172 0.139275 0.0681029
-0.419172 -0.0727981 -0.290069
-0.125392 0.55129 -0.42873
-0.503092 0.409012 -0.14155
-0.0209364 0.237356 0.408297
0.503959 0.434683 -0.421275
0.0602387 0.707132 0.394883
0.223696 0.707132 0.0772727
0.128962 0.106053 -0.514834
-0.503092 -0.0181011 -0.177886
-0.498057 -0.295511 0.461737
0.420038 0.311993 -0.514578
-0.419172 -0.552236 -0.503149
0.0847921 0.707132 0.149071
0.215096 -0.0391921 0.408297
0.249604 -0.107814 -0.514834
0.503959 0.548079 -0.263613
0.420038 0.314818 0.366565
0.420038 -0.525367 0.310491
-0.433697 0.707132 -0.188192
-0.120089 0.62321 -0.514223
-0.503092 0.609821 -0.427267
0.285181 -0.585251 -0.210817
0.323491 0.567937 -0.514834
0.0126066 0.554847 -0.42873
-0.419172 -0.422684 0.176656
-0.419172 0.306516 -0.281252
0.105031 -0.753093 0.120625
-0.419172 0.0127349 0.245099
-0.398125 -0.585251 0.322825
0.355128 0.196594 -0.42873
0.145136 0.011149 -0.42873
-0.418541 -0.726913 0.408297
-0.419172 -0.293106 -0.472414
0.174863 -0.475837 -0.42873
0.0635889 -0.585251 0.45129
0.466653 0.13878 -0.42873
0.00737397 -0.113856 -0.514834
-0.231623 0.599429 -0.42873
-0.123462 -0.753093 0.104171
0.503959 0.106162 -0.148892
-0.503092 -0.664439 -0.241616
0.420038 0.102102 0.377269
0.494218 -0.695464 0.408297
-0.419172 -0.236759 0.381201
0.383446 -0.753093 -0.0415264
0.15453 0.607538 -0.42873
0.0934931 -0.385056 -0.42873
-0.173653 -0.243965 0.408297
0.503959 0.249004 0.0305734
-0.419172 -0.283265 -0.241435
0.420038 0.275482 -0.169877
-0.240939 -0.585251 -0.292109
0.420038 -0.253585 -0.196744
0.0353199 -0.0658929 0.490539
-0.104887 0.0675609 0.490539
0.420038 -0.563501 -0.357762
-0.397011 -0.116323 0.490539
-0.419172 -0.581415 -0.273641
-0.00294148 -0.258301 0.490539
0.148828 0.707132 -0.330596
-0.444415 0.480776 0.408297
0.503959 0.463889 0.0170546
0.0118146 0.62321 0.35202
-0.41904 0.305522 -0.42873
-0.0363524 0.62321 0.248745
0.103393 -0.390035 0.408297
0.420038 -0.330297 -0.000781765
-0.0932953 0.498015 -0.514834
0.380712 0.0170081 -0.42873
-0.274529 0.707132 -0.0819795
-0.284802 0.0658991 -0.514834
-0.419172 0.340839 -0.100788
-0.305908 0.15644 -0.42873
-0.338041 -0.113296 -0.514834
-0.503092 0.0946173 -0.019017
-0.419172 0.501039 -0.126479
-0.185511 0.268699 0.490539
0.414069 0.62321 -0.370743
-0.307502 -0.478287 -0.514834
-0.419172 -0.53616 -0.0419293
0.28411 0.0594135 -0.514834
0.420038 -0.220734 0.0487466
-0.157929 -0.585251 0.0161838
0.420038 0.415967 0.24978
-0.388462 0.62321 0.169038
-0.329233 -0.342168 -0.42873
-0.147926 -0.649077 -0.42873
-0.0355142 0.173691 0.490539
-0.503092 -0.483719 -0.0572676
0.498923 -0.157786 0.474619
-0.329387 0.364352 -0.42873
-0.153312 0.0152645 -0.42873
-0.503092 -0.534692 -0.282312
-0.138153 0.619058 0.490539
-0.325518 -0.753093 -0.354223
-0.498057 0.636008 0.429213
0.503959 -0.257244 0.284769
0.384793 -0.585251 0.022297
-0.17371 -0.717439 0.408297
0.456511 -0.387712 -0.42873
-0.0985121 -0.362111 0.408297
0.503959 0.0996401 0.255453
0.503959 0.358087 -0.303216
0.0093756 -0.753093 -0.0480731
-0.503092 -0.199957 -0.222366
0.503959 -0.497595 0.170702
-0.0179133 -0.272304 -0.42873
0.420038 -0.231688 0.377381
-0.176452 0.62321 0.248498
0.420038 0.171171 0.13224
0.420038 -0.0458884 -0.0703648
0.420038 0.517943 -0.319928
0.298011 0.707132 0.282166
0.386493 0.707132 0.0112359
-0.119352 0.490472 0.408297
0.0956789 0.440489 -0.514834
-0.419172 0.399303 0.175118
0.420038 0.013717 -0.214204
0.0609755 0.297995 -0.514834
0.202311 0.0400908 0.490539
0.361245 -0.366097 -0.42873
-0.252693 0.429792 0.490539
-0.503092 0.0882381 0.387785
0.503959 -0.161127 -0.00169688
0.344726 0.151677 0.490539
-0.211262 -0.552704 0.408297
-0.364967 0.62321 -0.230392
-0.503092 0.616247 -0.089064
0.503959 0.206683 0.240385
0.234743 -0.385205 0.408297
-0.162179 -0.119967 -0.42873
0.118531 -0.229904 0.408297
-0.503092 0.0730328 -0.152792
-0.217231 -0.329037 0.490539
0.311422 -0.753093 0.0803017
0.420038 0.621305 -0.168737
-0.419172 0.593318 -0.0404971
-0.360983 -0.22877 -0.42873
-0.397404 0.472054 -0.514834
0.503959 0.628699 -0.337372
0.225837 -0.523565 -0.514834
0.357141 0.0396101 0.408297
0.257091 0.62321 -0.235406
-0.503092 0.581509 -0.331421
0.503959 -0.355586 0.0423251
-0.503092 0.177037 -0.375237
-0.503092 -0.180015 0.250806
0.503959 -0.0536526 -0.282914
-0.419172 -0.494401 -0.129754
0.255048 0.707132 -0.107319
0.207528 0.62321 0.321013
-0.503092 -0.00431831 0.367224
0.217288 0.703307 -0.42873
-0.168814 -0.753093 -0.00538097
-0.317442 0.707132 -0.359986
0.0281132 0.62321 -0.102762
-0.318076 0.548091 -0.42873
-0.259205 0.0450948 0.490539
-0.150601 0.446558 -0.42873
-0.419172 -0.584547 0.0372117
-0.503092 -0.2969 -0.407473
-0.503092 -0.0351021 0.199833
0.503959 -0.752083 0.0638199
-0.209115 0.539557 0.408297
-0.170853 0.707132 0.181652
0.22498 -0.753093 -0.360493
-0.422355 -0.577555 0.490539
0.423085 -0.0874635 0.408297
-0.419172 -0.24596 -0.0560678
-0.16254 0.309548 0.408297
0.0974658 0.707132 -0.0702712
0.0960837 0.62321 -0.186083
-0.461238 -0.753093 0.0719101
-0.419172 0.0345892 -0.513328
-0.219035 0.179678 0.408297
-0.289923 -0.57299 -0.42873
0.0988143 0.62321 0.0830697
0.503959 -0.0913732 0.132518
-0.0474402 0.62321 0.0942077
0.380628 -0.753093 0.168384
-0.181152 0.62321 -0.30995
0.0674138 -0.655523 -0.42873
0.296291 -0.278823 0.490539
-0.322157 -0.0497026 -0.42873
-0.503092 0.467093 -0.0569159
-0.419172 -0.291876 0.16819
0.0995019 0.62321 -0.00996835
-0.0435945 -0.585251 0.196473
0.420038 -0.457722 0.115093
-0.419172 0.143082 -0.334439
-0.503092 -0.489831 0.274598
-0.395146 -0.753093 -0.234877
0.274614 0.62321 -0.0457612
-0.209524 0.29449 -0.42873
-0.0876913 0.707132 -0.328835
-0.432253 -0.423292 0.408297
0.143385 -0.585251 -0.115925
0.17608 0.585985 0.408297
0.498923 -0.584959 0.483559
0.503959 -0.256218 -0.0748596
-0.457193 -0.753093 -0.0665773
0.125397 -0.552107 -0.42873
-0.111947 -0.228233 -0.514834
0.103816 -0.0673468 0.408297
0.503959 -0.660094 -0.284922
-0.147744 -0.173042 0.490539
-0.419172 0.125616 0.273528
-0.419172 -0.0587227 -0.498165
-0.0388811 -0.585251 0.349238
0.503959 0.52789 0.291973
0.415455 -0.585251 0.216443
-0.242932 -0.653552 -0.42873
-0.419172 -0.565059 0.173137
0.503959 0.703596 -0.141243
0.20454 -0.47166 0.490539
0.154092 0.707132 0.352372
-0.0722812 0.707132 -0.032726
0.503959 -0.5597 0.266932
0.503959 0.156455 0.0588385
-0.359599 0.707132 -0.111902
0.420038 -0.130682 -0.36413
-0.419172 -0.0759985 0.230037
0.420038 -0.233518 -0.505648
0.3017 0.585826 0.490539
0.207757 -0.21717 -0.42873
0.420038 -0.245312 0.168206
-0.290512 0.62321 0.232081
0.420038 -0.447476 -0.0977847
0.419861 -0.321013 0.408297
-0.0304993 -0.753093 -0.197815
-0.242612 -0.0960394 -0.514834
-0.419172 0.189228 -0.132817
-0.149727 -0.059757 0.408297
0.0283989 0.707132 0.0502429
-0.419172 0.222761 0.036268
-0.0135564 0.62321 -0.297965
-0.503092 0.27985 0.0888894
0.378339 -0.646627 0.408297
-0.419172 -0.0890288 -0.0167268
0.297679 -0.634537 -0.42873
-0.0882755 -0.585251 -0.342861
0.329864 0.275941 0.408297
-0.503092 0.257093 -0.0314799
0.19211 -0.753093 -0.0197282
-0.416966 -0.753093 0.251494
-0.192514 -0.312589 -0.514834
-0.325707 0.698739 0.441813
0.503959 0.466092 0.135434
-0.0584048 -0.104256 0.408297
0.0732493 0.62321 -0.460506
-0.503092 -0.7155 0.253711
0.180705 0.707132 -0.0400193
0.420038 0.570455 0.127936
0.0438888 0.437384 0.408297
-0.33424 0.252139 0.408297
-0.353757 0.46102 0.490539
0.208333 0.62321 -0.155477
-0.503092 -0.6628 0.101218
0.121123 0.610394 0.490539
-0.011274 -0.522596 0.408297
0.503959 0.295675 0.190808
-0.0878844 0.144158 -0.514834
-0.362973 0.00406842 0.408297
0.332025 0.25644 -0.514834
-0.503092 0.2686 0.393726
0.402355 0.51918 0.408297
-0.323397 -0.25257 0.490539
0.257384 -0.0711294 0.490539
0.473418 -0.56768 -0.42873
-0.250145 0.707132 -0.298016
-0.503092 -0.150804 0.0670311
-0.419172 -0.0789458 0.0705556
-0.407925 0.53669 0.490539
0.420038 -0.266608 -0.345988
-0.219091 0.62321 -0.0346084
0.0977258 0.707132 -0.257647
-0.419172 -0.13653 0.372372
-0.148963 -0.535243 -0.42873
0.503959 0.627333 0.128478
-0.419172 -0.0559724 0.322045
0.142404 -0.144808 0.490539
-0.255655 -0.178576 0.408297
-0.0125753 0.332356 0.490539
0.420038 0.426659 -0.193445
-0.0273599 0.353214 -0.42873
0.140993 0.186919 0.408297
-0.419172 -0.405703 -0.326888
-0.233177 0.583029 0.490539
0.107212 -0.320071 0.490539
0.503959 -0.0161635 0.331216
0.420038 -0.527041 -0.278076
0.404318 0.412899 0.490539
0.419811 -0.321675 -0.514834
0.263155 0.707132 -0.19906
-0.503092 -0.542618 0.0629176
-0.419172 -0.419183 0.315674
0.503959 -0.0420133 -0.378918
-0.00771603 -0.34064 -0.514834
-0.278169 0.707132 0.31791
-0.500131 -0.365075 0.408297
-0.419172 0.321562 0.24461
0.10633 -0.753093 -0.339581
-0.503092 0.281051 -0.419916
0.315291 -0.740364 0.408297
0.273292 0.100297 0.490539
-0.0594499 0.59728 0.408297
0.397215 0.707132 0.222073
-0.47667 -0.0461002 0.490539
0.420038 0.105322 0.29109
0.503959 -0.425983 0.384814
0.403843 0.495528 -0.514834
-0.419172 -0.13481 -0.19102
0.420038 -0.134706 -0.10741
0.217713 0.0572119 -0.42873
0.357536 0.62321 0.281622
0.238553 -0.753093 0.249766
0.150206 -0.636701 0.408297
0.0227418 -0.582402 -0.42873
0.420038 -0.396405 0.174583
-0.347152 -0.407638 0.408297
-0.503092 -0.716152 0.405098
0.503959 0.240363 -0.264396
0.420038 0.306363 -0.336099
-0.29851 0.372834 0.408297
0.40169 -0.331748 0.490539
0.203385 -0.231165 0.408297
-0.503092 -0.041833 0.0989025
-0.498057 -0.213102 0.441781
-0.120823 0.707132 -0.11273
0.503584 0.707132 0.265201
-0.0241053 -0.132021 -0.42873
0.420038 0.174093 -0.367443
-0.419172 0.242953 0.35282
0.224136 0.264727 0.490539
0.397033 -0.539029 0.490539
0.498646 0.0177419 0.490539
0.503959 -0.386952 -0.219885
0.503959 -0.542783 0.0800693
-0.419172 -0.411239 0.0336162
-0.419172 -0.387005 -0.431104
-0.0858986 0.0298167 0.408297
-0.503092 0.578055 0.0763793
0.503959 0.0931111 -0.349779
0.0270977 -0.753093 0.0724105
0.503959 -0.644218 -0.0545183
0.420038 -0.0400599 0.0780726
-0.12943 0.396469 0.408297
0.479938 0.22399 0.408297
0.43158 0.218532 0.490539
0.187202 0.707132 -0.250126
0.207634 0.268054 -0.514834
-0.15209 0.191692 0.490539
0.228125 0.707132 0.181732
0.420038 0.476523 -0.420248
-0.301712 -0.753093 -0.175101
-0.419172 -0.259575 0.254012
0.420038 0.370212 0.0789867
-0.405001 0.190741 0.490539
-0.328865 0.603138 0.408297
-0.498057 0.375897 0.462137
0.295324 -0.475706 0.490539
0.437284 0.644906 0.408297
-0.0218791 0.62321 -0.395932
-0.200334 -0.753093 -0.318381
-0.295343 -0.54247 0.408297
0.265116 -0.585251 -0.0141272
0.503959 -0.670003 0.240517
-0.503092 0.126118 0.159555
-0.372576 -0.507329 0.490539
0.420038 0.105895 -0.019021
0.0171417 -0.585251 0.0770087
-0.498057 0.697019 0.4853
-0.419172 0.490199 0.151059
-0.0574335 -0.640206 0.408297
0.464448 -0.753093 -0.133714
0.503959 -0.158303 0.307439
0.474525 0.49638 0.490539
0.227277 0.121661 -0.514834
0.503959 0.405488 -0.173103
-0.503092 0.0459085 -0.3619
-0.222738 0.62321 0.103372
0.261184 -0.0198407 -0.514834
-0.419172 0.225213 -0.29524
-0.308488 -0.753093 -0.00920494
0.0615124 -0.753093 0.22047
0.209713 -0.259253 -0.514834
-0.316226 0.524285 -0.514834
-0.0782752 0.25355 -0.42873
0.363568 0.707132 -0.303636
-0.281866 -0.441064 0.490539
0.503959 -0.0703 -0.183777
0.330711 -0.199884 0.490539
-0.503092 0.185923 -0.0751807
0.0585572 0.565101 0.408297
-0.421705 0.0252766 0.490539
-0.00640098 -0.585251 -0.340859
-0.503092 -0.421601 0.229343
0.239745 -0.585251 -0.306587
0.335465 0.345457 -0.514834
0.143194 0.232997 0.490539
-0.0604537 -0.50482 0.490539
0.503959 -0.338978 0.144999
0.219741 -0.70274 0.408297
-0.503092 0.403662 -0.306605
0.292751 -0.546494 0.408297
-0.503092 0.0353152 -0.255981
-0.503092 -0.144498 -0.162677
0.27733 0.336448 -0.42873
0.21652 0.62321 -0.314397
0.420038 -0.512693 0.0328764
-0.419172 0.559744 -0.199962
-0.0865546 0.62321 -0.247683
0.262051 0.0271679 0.408297
0.206114 -0.649284 -0.42873
-0.503092 -0.391061 -0.0494758
0.248238 0.521011 0.490539
0.304251 0.707132 0.0670085
-0.419172 0.4724 0.312147
-0.503092 0.566486 -0.23891
0.503959 -0.511677 -0.0704466
0.0293396 0.466702 0.490539
0.011987 0.052727 0.408297
0.45757 0.586939 -0.42873
-0.425533 0.486968 -0.42873
-0.419172 0.198911 0.122991
0.40132 -0.493926 -0.514834
0.104898 -0.585251 0.274423
-0.0289143 -0.465215 -0.42873
0.0686432 -0.504497 -0.514834
0.133938 0.199153 -0.42873
0.0239819 -0.199565 0.408297
0.217651 0.707132 0.275253
0.503959 0.326198 0.11621
-0.419172 0.353664 -0.0212748
0.503959 0.451288 0.242122
0.420038 0.0127359 -0.00232534
0.108688 -0.753093 0.33884
-0.419172 -0.331111 -0.0044432
0.420038 -0.157935 0.343824
0.503959 -0.21883 -0.160696
0.362782 0.698739 0.489167
0.503959 0.278912 -0.0439861
-0.176754 -0.212444 -0.42873
0.122623 0.377926 0.408297
0.503959 0.0552005 0.0347806
-0.419172 0.057732 0.163717
-0.0869004 -0.382207 -0.42873
-0.295592 0.62321 -0.374566
-0.503092 -0.670909 0.333827
0.00202219 -0.585251 -0.0712563
-0.419172 0.203042 -0.477777
0.420038 0.0152931 0.240897
-0.42117 0.321159 0.490539
-0.260038 0.00482297 -0.42873
-0.503092 0.551569 0.376879
0.0918273 0.0278308 0.490539
0.0611105 0.0113805 -0.42873
0.296764 0.561145 -0.42873
-0.176358 0.636841 0.408297
0.410326 0.397789 -0.42873
-0.419172 0.532386 0.0226999
0.448851 0.707132 -0.251335
-0.503092 -0.71426 -0.354523
0.231184 0.166615 0.408297
-0.309801 0.109628 0.490539
-0.419172 0.0260429 -0.134527
0.109969 -0.143844 -0.42873
-0.0157915 -0.349011 0.408297
0.201001 -0.753093 0.170151
0.468282 -0.0210858 0.408297
-0.419172 -0.0582597 -0.374381
0.420038 -0.355666 -0.331562
-0.211878 -0.487996 -0.514834
-0.286264 0.707132 0.0136926
0.371417 -0.147504 0.408297
-0.503092 -0.661877 0.19552
-0.503092 -0.336164 0.0883575
-0.419172 0.377955 -0.381599
-0.419172 0.16288 -0.0475569
-0.377382 0.62321 -0.362146
-0.419172 -0.182254 -0.380231
-0.38947 -0.753093 0.104175
-0.304678 -0.585251 -0.340477
-0.503092 0.255232 0.20258
-0.441464 -0.575413 0.408297
-0.419172 0.338015 -0.183962
-0.419172 -0.122895 0.135644
-0.403238 -0.753093 -0.340632
-0.222456 0.0953176 0.408297
-0.349744 -0.261323 0.408297
-0.498057 0.473595 0.481479
0.420038 -0.162218 -0.0279692
-0.164374 0.461879 -0.514834
-0.419172 -0.239132 0.10394
0.449355 0.247706 -0.42873
0.224798 -0.585251 -0.0973256
-0.125855 -0.753093 0.311077
-0.255622 -0.585251 -0.0100797
0.502328 -0.753093 -0.32363
-0.280732 0.62321 -0.205246
0.420038 -0.172717 -0.194184
0.503959 0.192233 -0.0568302
0.503959 -0.234414 -0.247508
-0.086198 -0.572617 -0.514834
0.420038 0.27362 0.296283
0.329338 0.124522 -0.514834
-0.150224 0.317144 -0.514834
-0.503092 -0.0606721 -0.100056
-0.503092 -0.167764 -0.314051
-0.503092 -0.212316 -0.00378519
-0.503092 0.425418 0.0150007
-0.0247476 0.707132 -0.226261
0.228201 -0.585251 0.0970555
0.213537 0.546868 -0.514834
0.349532 0.62321 -0.443849
0.503959 -0.481615 -0.351438
-0.151494 0.62321 -0.441898
0.503959 0.356912 0.35811
0.263273 0.191646 -0.42873
0.503959 -0.0590763 0.0219444
-0.312209 0.62321 -0.0701786
-0.140419 -0.585251 -0.284769
0.475567 -0.614471 0.408297
0.420038 0.118291 -0.27089
0.420038 0.508871 0.174969
-0.503092 0.390982 0.303341
-0.443852 0.664018 -0.42873
-0.503092 -0.33971 0.308413
-0.213676 -0.585251 0.489579
-0.045871 -0.0210307 -0.514834
0.435251 -0.490683 0.408297
-0.180897 -0.585251 0.333075
0.498923 0.627637 0.456918
0.491977 0.435229 0.408297
-0.130981 -0.0114796 0.490539
-0.141233 0.707132 0.0421497
0.503959 0.0766332 0.330327
0.337062 -0.0502276 0.490539
0.401814 -0.539438 -0.42873
0.269086 -0.585251 -0.493324
-0.203994 -0.470473 0.408297
0.359126 -0.0606672 -0.42873
0.20215 0.62321 -0.0712139
-0.242419 0.0119409 0.408297
0.266171 -0.585251 0.278431
-0.252861 -0.349457 -0.42873
-0.503092 -0.73034 -0.202408
0.169788 0.707132 0.131997
-0.446974 0.640144 0.490539
-0.0873032 0.34931 0.490539
0.420038 0.266853 -0.0937775
0.0984814 0.295673 0.490539
0.0946328 -0.479659 0.408297
-0.376486 -0.585251 0.240972
0.420038 0.360179 0.154869
-0.419172 -0.0584705 -0.195451
0.264014 0.62321 0.372546
0.0262347 0.479743 -0.42873
-0.166064 0.698739 0.476518
0.420038 -0.31502 -0.0871707
0.503959 0.412137 0.0773584
-0.216893 -0.500634 -0.42873
0.274972 -0.147526 -0.42873
0.351313 -0.186647 -0.514834
0.435166 0.707132 -0.406668
-0.419172 -0.178831 -0.0920724
0.325557 -0.113467 -0.514834
0.320487 0.62321 0.0329218
0.331392 0.472158 -0.514834
0.284295 0.330737 0.490539
-0.301732 -0.753093 0.332332
-0.371515 -0.585251 -0.453398
-0.503092 -0.697641 -0.0905918
0.400097 -0.753093 -0.239608
-0.419172 0.517273 -0.0515621
0.288456 -0.585251 -0.364579
-0.153567 0.0909933 -0.42873
-0.503092 -0.246646 -0.08195
0.503959 0.364942 0.256464
-0.503092 -0.428861 -0.211637
-0.419172 -0.45132 -0.196609
0.420038 -0.388476 0.0846842
-0.263893 -0.585251 0.245418
0.503959 0.642637 0.0306985
0.458147 -0.684217 -0.42873
0.503959 0.484829 -0.055458
-0.503092 0.626566 0.134199
-0.503092 0.152134 0.248069
0.0357503 0.17377 -0.42873
-0.384323 -0.486357 -0.514834
0.195621 -0.753093 -0.211708
0.22285 -0.580251 0.408297
-0.503092 0.107516 0.3144
0.319841 0.707132 -0.149425
0.420038 -0.25748 -0.0200395
-0.0714016 -0.753093 -0.31644
0.420038 -0.425389 0.290294
0.105578 0.46053 0.490539
-0.42924 0.707132 0.347992
0.135022 -0.585251 0.0265199
0.306003 0.62321 -0.292478
0.0422152 -0.753093 -0.21682
0.420038 0.465704 -0.265939
-0.127153 0.126394 0.408297
-0.294242 0.506771 0.490539
0.33713 0.479943 0.408297
0.402552 -0.000441145 0.490539
-0.34678 0.707132 0.183495
-0.419172 0.59686 0.258138
0.268841 0.429342 0.408297
0.199022 -0.753093 0.337286
-0.394737 -0.753093 0.329627
-0.076184 0.0793953 -0.42873
0.0760734 0.707132 0.302817
0.155008 -0.585251 -0.297737
-0.503092 -0.22137 0.157088
-0.503092 0.670637 -0.0264532
-0.324602 -0.750579 -0.42873
-0.0917488 -0.560913 0.408297
0.0916668 -0.128318 -0.514834
-0.0389323 -0.753093 -0.428693
-0.503092 -0.10925 0.221002
-0.224877 0.231657 -0.514834
-0.502121 0.707132 0.40794
0.371775 -0.753093 0.34311
-0.354791 -0.076754 0.408297
0.214119 -0.450337 -0.514834
0.392746 0.114058 -0.42873
0.195958 -0.401095 -0.42873
-0.419172 0.289704 -0.353317
0.503959 -0.387884 0.309131
0.0853181 -0.585251 -0.0638516
0.492835 0.259878 0.490539
0.236617 -0.542006 0.490539
-0.357113 0.62321 0.0731394
-0.477234 0.707132 -0.309009
0.355265 0.0334899 -0.514834
0.503959 0.555591 -0.177157
0.143829 0.36973 -0.42873
0.193186 0.505673 0.408297
-0.419172 0.0981871 0.00682283
0.503959 0.0319739 0.186541
-0.419172 0.325074 0.337146
-0.00488893 -0.449516 0.490539
0.413053 -0.196962 -0.42873
-0.503092 0.440889 0.13392
-0.00594392 0.237769 -0.514834
-0.28153 0.286192 0.490539
0.256949 -0.135562 0.408297
0.147357 -0.561178 0.408297
-0.122707 -0.425742 -0.514834
-0.444826 -0.185256 0.490539
0.00874418 0.611447 0.490539
0.346005 -0.585251 0.126669
0.488541 -0.753093 0.249719
0.420038 -0.0489717 -0.252246
-0.503092 0.0285203 0.0127302
0.195374 0.62321 0.232216
0.503959 0.0552113 -0.0914065
-0.201678 0.62321 0.179726
-0.419172 -0.492496 0.146181
-0.419172 -0.399163 -0.120352
-0.0490842 0.62321 -0.12504
0.432393 0.707132 -0.0597627
-0.503092 -0.577585 -0.0896137
0.203802 -0.753093 -0.287256
0.503959 0.1722 -0.222075
-0.503092 0.504357 0.244847
-0.341653 0.403233 -0.514834
-0.11891 0.707132 0.130178
0.503959 -0.0939649 0.257395
0.420038 0.472924 -0.136921
-0.0305328 0.426825 0.408297
-0.203815 -0.0417434 -0.42873
-0.254511 0.707132 0.140225
0.114703 0.118842 0.408297
0.420038 -0.15425 0.219968
0.420038 0.216508 0.21258
0.16628 0.0149513 0.408297
0.503959 -0.218057 0.349136
-0.261839 -0.281646 -0.514834
0.0788985 0.707132 -0.350791
-0.503092 -0.367005 -0.426686
0.0274956 0.707132 -0.0506746
-0.503092 -0.520513 -0.353568
0.420038 -0.165851 0.0962497
-0.0901668 -0.278537 -0.42873
-0.226811 0.3773 -0.514834
-0.419172 -0.210415 -0.23577
-0.276204 -0.369313 0.408297
-0.503092 0.691297 -0.201255
0.503959 -0.274831 0.111571
0.26085 0.297211 0.408297
0.420038 0.515376 0.328148
-0.202264 0.62321 -0.240916
-0.419172 -0.487914 -0.364122
0.344029 -0.585251 0.362355
-0.503092 -0.327292 -0.325068
-0.261062 0.681829 0.408297
0.119269 -0.537258 0.490539
-0.209856 0.369299 0.408297
-0.163752 -0.730996 -0.42873
-0.351392 -0.17208 0.490539
-0.498057 -0.446129 0.426695
0.264086 -0.314583 0.408297
-0.354929 0.209062 -0.42873
-0.503092 0.618314 -0.160951
0.308465 0.707132 -0.351343
0.503959 0.309829 -0.136868
-0.503092 0.308313 0.0229984
-0.419172 0.132842 0.344904
-0.503092 -0.350788 -0.193478
-0.498057 -0.119899 0.419822
-0.0668024 0.62321 0.000408177
-0.153555 -0.585251 0.114141
0.503959 -0.6704 0.159023
-0.462901 -0.486101 -0.42873
0.342101 -0.420076 0.408297
0.369277 0.62321 0.134876
0.00283683 -0.333523 0.490539
-0.0805931 -0.230869 0.490539
-0.419172 -0.266982 -0.332245
-0.44541 0.707132 0.0329838
0.234223 -0.33371 0.490539
0.332643 0.707132 -0.0743503
0.420038 0.566632 -0.260352
-0.503092 -0.729255 -0.428441
0.0175949 0.123949 0.490539
-0.419172 0.356484 0.11019
-0.415355 0.62321 0.023616
0.275163 -0.475998 -0.42873
0.0585848 -0.323467 -0.42873
0.364489 -0.491145 0.408297
-0.503092 0.406141 -0.212234
-0.318862 -0.585251 0.289872
-0.056611 -0.753093 0.135863
0.0525721 0.581362 -0.514834
0.420038 0.076643 -0.182276
-0.104891 0.503138 0.490539
-0.419172 -0.521383 0.343916
-0.376935 0.62321 -0.481917
-0.503092 -0.534397 0.220085
-0.207267 -0.123852 0.490539
-0.102445 0.62321 0.272825
0.115684 -0.585251 -0.228583
-0.0895777 0.267538 0.408297
-0.386936 -0.0176667 -0.42873
0.364224 0.620654 0.490539
-0.115941 -0.753093 -0.192889
0.420038 -0.442704 -0.45488
0.420038 0.199507 -0.153589
-0.0711996 0.564543 -0.514834
0.368823 -0.0431067 0.408297
0.0634726 -0.241132 -0.514834
0.454288 -0.16659 0.408297
-0.503092 0.183944 -0.233337
-0.432658 -0.608713 -0.42873
-0.229369 -0.753093 0.254788
0.0308537 0.62321 0.270687
0.503959 0.426032 -0.319702
-0.22822 0.62321 0.295468
-0.419172 0.419361 -0.474477
-0.503092 -0.579816 -0.212183
0.420038 0.362207 -0.0457976
-0.288986 -0.183294 -0.514834
0.13334 0.62321 -0.364228
-0.186437 0.0306865 0.490539
-0.419172 0.507952 -0.356519
0.0798176 0.707132 0.218467
0.503959 -0.323961 -0.249424
0.420038 -0.415158 -0.268537
-0.445211 -0.330358 0.490539
0.466252 -0.291136 0.490539
0.285612 0.0300186 -0.42873
0.185193 0.40246 0.490539
0.491512 0.0867989 0.490539
-0.503092 0.162566 0.404427
0.292414 0.62321 0.184504
-0.0663532 0.183253 0.408297
-0.201499 0.707132 0.265679
-0.408059 -0.753093 0.170931
-0.303317 0.190151 0.408297
0.142823 -0.293431 -0.514834
0.39429 -0.585251 -0.129501
0.438533 0.707132 0.151767
0.142601 0.0979123 -0.42873
0.503959 0.298402 -0.33807
-0.182495 0.62321 -0.0932337
-0.153579 0.448648 0.490539
0.420038 -0.301861 0.310861
-0.503092 -0.33841 0.23585
-0.419172 0.0995337 -0.48995
0.130531 0.0849066 0.490539
-0.0277155 -0.753093 -0.106155
0.150942 0.48161 -0.514834
0.420038 -0.255692 -0.265574
-0.372456 0.647787 0.490539
-0.419172 0.264776 -0.508243
0.0309098 0.0946153 -0.514834
-0.419172 0.475576 -0.231009
0.459421 0.707132 0.388982
0.239437 -0.753093 0.0324007
0.168334 0.62321 -0.508713
0.496543 0.514362 -0.42873
0.0166108 0.707132 0.14019
-0.419172 0.00247362 -0.0482868
0.503959 0.545191 -0.0990564
-0.365736 -0.306657 0.490539
0.503959 -0.202411 0.154909
0.315775 0.473359 0.490539
-0.0529476 0.405394 -0.514834
-0.0349202 0.490484 0.490539
0.503959 -0.188231 -0.0832187
-0.419172 0.103783 -0.278351
0.198341 -0.182425 -0.514834
-0.0516001 -0.505798 -0.514834
-0.35632 0.316859 0.408297
-0.371929 0.661153 0.408297
0.43193 -0.181562 0.490539
0.203682 0.324065 -0.42873
0.186389 0.328623 0.408297
-0.33669 0.62321 -0.140101
-0.0662133 -0.157626 -0.514834
0.420038 -0.585052 -0.509188
0.420038 0.447724 0.058669
0.331065 -0.383185 -0.514834
-0.0450455 -0.181596 0.408297
-0.159243 0.707132 -0.382079
-0.350558 0.707132 0.290279
0.420038 0.051145 -0.281956
0.0545215 -0.142017 0.490539
0.332253 -0.753093 -0.215393
0.166191 -0.419553 0.408297
0.503959 0.687297 -0.302896
0.27636 -0.585251 0.345632
-0.419172 0.615267 0.3267
0.503959 0.0234808 -0.313734
-0.141901 -0.585251 -0.14726
0.148156 0.5482 0.490539
-0.419172 -0.284124 -0.173625
0.344797 -0.753093 -0.380761
0.503959 0.223896 0.307146
0.420038 -0.534938 -0.17016
-0.273526 -0.00872148 -0.514834
0.0463584 0.230679 0.408297
0.420038 -0.120414 -0.237033
-0.503092 -0.451896 -0.292997
0.498848 -0.0880664 -0.42873
0.00256889 -0.6093 0.408297
0.360298 -0.263395 0.408297
0.503959 -0.622212 -0.229085
0.252073 0.455444 -0.42873
-0.503092 0.0194943 0.160297
0.503959 -0.502045 -0.211359
-0.0673954 -0.303927 0.490539
-0.503092 -0.464368 -0.132707
0.420038 0.28862 -0.25744
-0.38605 0.112219 -0.42873
-0.0354915 -0.0250408 0.490539
-0.293698 0.62321 -0.450475
0.115993 -0.440252 0.490539
0.0116777 0.698739 0.445025
0.420038 -0.307282 0.20269
0.420038 0.361059 0.317817
0.0681359 -0.431419 -0.514834
0.0247119 0.359785 0.408297
-0.503092 -0.632979 0.0212834
-0.419172 -0.216025 0.309082
0.336287 -0.753093 0.269449
0.313846 0.707132 0.347305
0.420038 0.0143327 -0.374514
0.225198 -0.753093 -0.11557
0.153974 0.540515 -0.42873
-0.482784 -0.585251 0.462634
0.34119 0.62321 -0.202723
0.498923 -0.071155 0.443303
-0.242447 -0.753093 0.377979
0.0240726 -0.0359 -0.514834
0.0858087 -0.680979 0.408297
-0.500512 0.0447422 -0.42873
0.445318 -0.136673 -0.42873
-0.456624 -0.143117 -0.42873
-0.194912 0.618948 -0.514834
0.442673 -0.3141 -0.42873
0.111226 0.707132 -0.141667
0.162912 0.62321 -0.204408
0.444307 -0.753093 0.144151
0.420038 -0.497473 -0.032855
-0.316704 0.707132 -0.273814
-0.503092 -0.295794 0.393928
0.340682 -0.585251 0.195647
-0.419172 -0.350535 0.136554
0.21327 -0.585251 -0.456528
-0.0134264 0.418405 -0.42873
-0.0608408 -0.753093 0.296633
-0.239759 0.148777 -0.42873
-0.419172 -0.543764 -0.218747
-0.291696 0.707132 -0.428607
0.0935354 0.162346 -0.514834
0.0809701 0.62321 -0.271786
0.340796 -0.585251 -0.439775
-0.343106 -0.512031 -0.42873
-0.20862 -0.619032 0.408297
-0.503092 0.518768 -0.0985363
0.469181 -0.420774 0.490539
-0.234972 0.502892 -0.514834
0.0489894 0.62321 0.0393
-0.184349 0.1792 -0.514834
0.0887136 0.643653 0.408297
0.420038 -0.522719 0.167755
-0.419172 0.554191 0.189852
0.503959 -0.430035 -0.0432148
-0.3475 0.0874776 -0.514834
-0.302665 0.0835246 -0.42873
0.503959 -0.549602 0.332965
0.503959 -0.20966 -0.37598
-0.0582846 0.62321 0.186307
-0.0613816 -0.429292 0.408297
-0.404544 0.707132 -0.391106
0.480213 0.350872 0.490539
0.348916 0.62321 -0.35957
-0.419172 -0.570732 0.101853
-0.457455 -0.467367 0.490539
0.503959 0.16601 0.188333
-0.135192 0.698739 0.41818
-0.272431 0.433439 0.408297
0.22762 0.62321 0.0961374
0.334298 -0.585251 -0.165397
-0.419172 -0.486502 0.00131935
-0.498057 0.131486 0.465828
0.420038 -0.00152076 -0.150164
0.1427 -0.200874 -0.42873
0.503959 -0.0899183 0.326875
-0.419172 -0.553332 -0.333015
-0.192512 -0.315357 0.408297
0.382473 -0.585251 -0.0433123
0.420038 0.57807 -0.0100363
0.0871582 -0.149508 0.408297
0.420038 -0.363576 0.35449
0.420038 -0.0631387 -0.49653
0.498923 -0.351388 0.418069
-0.389374 -0.0512915 0.490539
0.104524 -0.0699818 -0.42873
0.420038 -0.193705 -0.346472
-0.147891 -0.527304 0.408297
-0.0525871 0.549486 -0.42873
-0.0569183 -0.383696 -0.514834
-0.503092 -0.47725 0.0629855
-0.503092 0.236727 0.265262
-0.0157846 -0.753093 0.398724
0.244448 0.707132 -0.364282
-0.503092 -0.0358902 -0.37813
-0.503092 -0.241248 -0.373338
-0.503092 0.697581 0.106352
0.420038 0.343285 -0.3944
-0.229015 -0.0941284 0.408297
-0.00356798 -0.753093 0.221514
-0.503092 0.611122 0.350741
0.200262 0.679837 0.490539
0.420038 0.58529 -0.0955988
0.361907 -0.585251 0.461317
0.420038 0.131879 -0.125342
0.288839 0.62321 -0.473974
-0.491826 0.707132 0.24904
0.503959 -0.678506 0.0100016
-0.336783 -0.413904 -0.42873
0.374171 0.62321 -0.123045
0.420038 0.239856 -0.358456
0.141938 -0.255894 0.490539
-0.0533022 0.707132 0.238619
0.503959 0.475432 0.359093
-0.374351 0.62321 -0.294355
-0.419172 -0.256101 0.0397876
0.498923 0.151103 0.426224
0.503959 0.107188 -0.245572
-0.152058 0.707132 0.31835
0.101305 0.62321 0.166814
-0.219481 0.707132 0.00567525
0.455603 -0.753093 0.359367
-0.325804 -0.676613 0.408297
-0.419172 -0.215607 -0.452963
-0.503092 0.245661 -0.366131
-0.182155 -0.753093 -0.119558
-0.0665679 0.707132 0.324654
0.420038 0.555778 -0.475546
0.503959 -0.111484 0.0714195
-0.503092 0.0281697 0.311719
-0.243512 -0.552649 -0.514834
-0.503092 -0.14413 -0.00983241
-0.419172 -0.118692 -0.119586
-0.482492 0.54408 -0.42873
-0.391034 0.707132 -0.237232
-0.0616052 0.114968 0.490539
-0.0260626 0.707132 -0.346714
0.272188 0.360352 0.408297
0.420038 0.115096 0.10117
0.127373 0.62321 0.287225
-0.503092 -0.220121 -0.140273
0.198038 -0.585251 0.0379613
-0.387367 -0.342026 -0.514834
-0.432607 0.0118109 0.408297
0.503959 -0.116363 -0.269709
-0.419172 0.403098 -0.260461
-0.116688 -0.214883 0.408297
0.0701611 0.244804 -0.42873
0.156387 -0.753093 -0.389903
0.503959 -0.463204 0.231523
0.232233 0.62321 0.163118
0.454844 -0.245222 -0.42873
0.410356 0.582498 0.408297
0.503959 0.628236 -0.0650022
0.215237 -0.585251 0.16003
0.288602 0.707132 -0.411948
0.503959 0.498151 -0.204826
-0.322316 -0.585251 -0.140581
-0.395047 0.521006 0.408297
-0.355403 0.305041 -0.42873
-0.14678 0.62321 -0.0298644
0.420038 0.0245279 0.100868
-0.331908 0.327579 -0.514834
0.503959 -0.574308 -0.0600818
0.437644 -0.753093 0.207278
0.503959 -0.0574333 -0.103329
0.503959 0.525059 0.0339689
-0.129807 0.0168012 -0.514834
-0.0311405 -0.585251 -0.190234
-0.498057 0.443214 0.419898
0.326961 -0.753093 -0.104766
-0.134067 -0.370923 0.490539
0.0663854 0.327588 -0.42873
-0.498057 -0.00622734 0.446244
-0.503092 0.122059 -0.199252
0.420038 -0.0803997 0.337288
0.263308 -0.378202 -0.514834
-0.448868 -0.179261 0.408297
-0.00522286 -0.210378 -0.42873
0.321732 0.62321 0.346829
-0.137747 -0.585251 0.232208
0.38934 0.707132 0.104145
-0.503092 0.344206 -0.419011
-0.419172 -0.335543 -0.276873
-0.100986 -0.294144 0.408297
0.127364 -0.753093 -0.0501732
-0.193386 -0.385709 -0.42873
-0.419172 -0.12909 -0.253877
-0.124797 0.134787 0.490539
0.339893 -0.753093 0.00413167
-0.340595 -0.344886 0.408297
-0.117685 -0.753093 -0.0422603
0.0887579 -0.753093 -0.102955
0.136118 0.439475 0.408297
0.131893 -0.753093 -0.195672
0.503959 -0.358365 -0.151957
-0.0798858 0.0151601 -0.42873
0.267492 -0.753093 -0.241762
0.420038 0.221559 0.340634
-0.503092 0.432931 -0.3789
0.398511 0.252831 -0.514834
-0.470239 0.180405 -0.42873
0.429938 0.268868 0.408297
0.503959 -0.597626 0.110691
-0.368454 -0.560599 0.408297
0.420038 -0.313995 -0.179708
0.214304 -0.0211174 -0.42873
0.503959 -0.706161 -0.0741484
-0.0913252 0.206742 -0.514834
-0.394728 -0.753093 -0.0475924
0.120111 -0.000380071 -0.514834
-0.419172 0.367082 0.392707
-0.419172 0.427861 0.230806
-0.288912 -0.120053 0.408297
-0.122816 -0.753093 0.179028
-0.0877623 0.343522 -0.514834
0.503959 -0.340432 -0.0183275
-0.159751 0.373017 -0.42873
0.420038 0.336711 -0.182345
0.105025 -0.585251 0.194146
0.169395 0.62321 0.073496
-0.153088 -0.753093 0.238145
-0.316554 -0.416518 -0.514834
-0.266345 0.448481 -0.42873
-0.120624 -0.585251 0.167154
0.0229151 0.64779 0.408297
0.00632588 -0.538704 0.490539
-0.503092 0.353056 -0.169754
0.113134 -0.753093 0.185416
0.420038 0.436258 0.318133
0.503959 0.408842 -0.0123147
-0.419172 0.363291 -0.308474
-0.419172 -0.287628 0.309684
-0.503092 -0.277579 -0.230568
0.420038 -0.0484496 0.19539
0.503959 0.492294 -0.291291
0.436159 -0.672956 0.408297
-0.503092 0.297346 0.248432
-0.464951 -0.499033 0.408297
0.420038 -0.383401 -0.0402528
-0.503092 -0.408556 0.109125
0.116294 -0.38378 -0.514834
0.503959 -0.322763 0.294407
0.420038 0.15332 0.330666
0.503959 -0.0608504 0.194904
0.44259 0.0407044 -0.42873
0.405847 -0.585251 0.27825
0.324813 -0.244476 -0.514834
-0.385817 -0.262354 -0.514834
-0.214105 0.62321 0.0272823
0.0702715 0.676468 -0.42873
-0.182972 0.62321 0.34809
0.503959 -0.678183 -0.193317
-0.503092 0.658697 -0.345117
-0.503092 0.125287 -0.0880406
0.420038 0.612981 0.256746
-0.00761949 -0.28611 0.408297
-0.272715 -0.753093 0.187428
-0.354866 0.707132 0.0349372
0.248207 0.575199 0.408297
-0.263017 0.329495 -0.42873
0.339504 -0.707453 -0.42873
-0.250233 0.56893 -0.514834
0.420038 -0.105131 0.0845591
0.14804 0.432654 -0.42873
0.285219 -0.219313 -0.42873
0.189267 -0.121242 -0.514834
-0.419172 0.542836 0.296578
0.420038 0.218752 -0.233912
-0.287952 0.62321 0.0669267
0.213329 -0.341926 -0.42873
-0.121189 -0.585251 -0.395007
0.185109 -0.53683 -0.42873
0.0435451 -0.0544811 0.408297
-0.00414817 0.126833 -0.42873
-0.419172 0.127907 -0.137143
-0.419172 -0.121535 -0.370905
-0.276272 -0.705124 -0.42873
-0.00124424 0.438722 -0.514834
0.0862372 0.377472 -0.514834
0.498923 0.553713 0.452374
0.498923 -0.229651 0.490153
-0.194525 0.550566 -0.42873
0.294958 0.705037 0.408297
-0.419172 0.0781147 0.0726981
0.288632 0.230568 0.408297
-0.0961116 0.707132 -0.254856
0.420038 0.265597 0.0595339
-0.17634 0.707132 -0.147091
0.420038 0.557865 -0.38652
0.420038 0.359858 0.0186375
-0.349502 0.140402 0.408297
-0.0399952 -0.753093 0.0769545
-0.503092 -0.4695 0.00226303
0.0711196 -0.585251 -0.484563
0.296226 -0.514663 -0.514834
0.0413799 -0.753093 0.35504
0.420038 0.226774 0.10689
0.420038 0.450338 -0.0801483
-0.254636 -0.585251 -0.228756
0.46487 -0.753093 -0.378077
0.046908 0.207262 -0.514834
0.178248 0.707132 0.0228703
0.420038 0.569858 0.193232
-0.399777 -0.671478 -0.42873
-0.0549374 0.645392 0.490539
-0.0163155 0.03217 -0.514834
-0.419172 -0.548457 -0.395219
-0.106273 -0.699932 -0.42873
0.139366 0.298072 -0.514834
-0.0256262 -0.585251 0.138404
-0.177276 -0.244141 -0.514834
-0.0563894 -0.753093 -0.25277
-0.0742523 0.407132 -0.42873
0.153733 0.707132 -0.0944178
-0.503092 -0.100985 -0.316641
0.0865287 -0.75273 0.408297
-0.503092 0.653118 0.274195
-0.503092 -0.305351 -0.0970715
0.494646 0.707132 -0.381004
0.410291 0.161815 0.490539
0.219366 -0.732343 -0.42873
-0.219437 0.218584 0.490539
0.348822 -0.585251 -0.360422
0.435005 0.159576 0.408297
0.436409 -0.385491 0.408297
-0.419172 -0.480154 0.299906
0.438681 -0.585251 0.481472
0.166987 0.423545 -0.514834
0.409827 0.383752 0.408297
-0.152618 -0.753093 -0.3551
-0.272632 -0.585251 0.458014
-0.287566 0.549141 0.408297
-0.333388 -0.0763108 0.490539
-0.317893 -0.753093 0.0500843
0.328332 0.368093 -0.42873
-0.441776 0.246426 0.408297
0.0689732 -0.753093 -0.270506
0.135974 0.707132 0.0824541
-0.201624 -0.473574 0.490539
-0.022809 0.232256 0.490539
-0.503092 -0.525207 0.120256
-0.419172 0.0512622 -0.409056
0.0319608 -0.753093 0.00738234
0.250015 -0.219507 0.490539
0.20994 -0.0506246 -0.514834
0.503959 -0.33556 0.215467
0.420038 0.549575 -0.148604
-0.0275934 -0.614622 -0.42873
-0.396958 0.0820628 0.408297
-0.226008 -0.585251 -0.0619643
0.503959 0.598539 0.180816
-0.503092 -0.6109 -0.412213
0.175088 -0.325454 0.490539
0.503959 -0.351507 -0.4272
0.243718 0.4084 -0.514834
0.503959 0.653391 0.206446
0.420038 0.300976 -0.45146
-0.438017 0.662475 0.408297
0.503959 -0.68552 0.348723
-0.503092 0.0859537 0.0415725
0.109217 0.253763 0.408297
-0.226082 0.35214 0.490539
-0.419172 -0.462443 0.365412
-0.503092 -0.383042 -0.345882
0.458484 -0.753093 0.0254698
-0.115641 -0.15242 0.408297
-0.345853 0.196996 0.490539
0.133422 0.707132 0.287188
-0.141411 -0.0854511 0.490539
0.223157 0.62321 -0.457482
0.27541 0.707132 0.217665
-0.419172 0.37753 0.0546746
-0.104424 -0.438665 0.490539
-0.312267 0.667753 0.490539
0.177504 0.129432 0.490539
0.307885 0.39792 -0.514834
0.242683 0.668321 0.408297
-0.232562 -0.585251 -0.453208
-0.419172 0.168974 -0.276714
-0.503092 -0.580282 0.339682
-0.221557 0.62321 -0.375497
-0.419172 -0.170086 0.0999929
-0.375951 0.597407 -0.42873
0.177064 0.18523 -0.514834
0.133799 -0.753093 0.0690091
-0.437827 0.707132 0.186284
0.321076 -0.585251 -0.0329131
-0.503092 -0.221018 0.378505
-0.116246 -0.585251 0.462257
0.322545 -0.31049 -0.42873
-0.419172 0.43853 0.0286624
-0.299029 0.184623 -0.514834
0.366307 0.245675 0.490539
0.197718 0.222144 -0.42873
-0.149914 -0.753093 0.367819
-0.275703 -0.504304 -0.42873
0.226202 0.360159 0.490539
-0.503092 0.615586 0.216863
-0.0730742 0.62321 -0.424997
0.22218 -0.52139 0.408297
-0.419172 0.264126 0.0922081
0.20657 -0.585251 -0.165399
0.416226 0.656065 -0.42873
-0.368461 -0.585251 -0.187952
0.262138 0.107523 -0.42873
0.33374 0.362421 0.490539
0.291646 0.180554 0.490539
-0.397608 0.594451 0.490539
0.503959 0.292035 0.258573
0.361071 0.130373 0.408297
-0.136374 0.300533 0.490539
-0.188523 -0.118357 -0.514834
-0.0568238 0.65573 0.408297
-0.503092 -0.0654122 0.399122
-0.381769 0.390388 -0.42873
-0.143624 -0.557521 -0.514834
-0.0167036 0.413671 0.490539
-0.168302 -0.237535 0.490539
0.0710004 0.552609 -0.42873
-0.363951 0.62321 -0.00411124
0.278294 0.707132 0.119298
0.503959 0.374454 -0.247207
-0.0419111 -0.696425 0.408297
-0.419172 0.413044 -0.139396
0.503959 0.186307 0.00875255
-0.319101 -0.585251 0.348124
-0.419172 -0.444804 0.0975815
0.503959 0.580185 0.317619
0.0287043 0.707132 0.346003
0.316031 -0.110905 0.490539
-0.20072 -0.0285525 0.408297
-0.503092 0.0694738 -0.0718581
0.503959 0.700772 0.101123
0.363012 0.198138 -0.514834
0.455123 0.707132 0.217578
0.224647 -0.391827 0.490539
0.420038 0.124809 -0.479719
-0.269332 -0.18097 -0.42873
0.325858 0.276948 -0.42873
0.420038 0.184283 -0.447302
-0.348784 -0.164302 -0.42873
-0.377061 -0.585251 -0.0699255
-0.419172 0.296784 -0.13838
0.13018 0.695347 0.490539
-0.503092 -0.493048 -0.242152
-0.283857 -0.229069 0.408297
-0.473618 -0.753093 -0.00428362
-0.503092 -0.278585 0.148954
0.340043 0.62321 -0.511712
0.284289 -0.753093 -0.380486
0.287159 -0.0295563 0.408297
-0.419172 -0.45822 0.237438
0.503959 -0.403256 0.00978783
