ply
format ascii 1.0
comment Created by Open3D
element vertex 1670
property double x
property double y
property double z
end_header
0.351868 -0.2288 -0.459048
-0.341807 -0.359691 0.456318
0.272942 0.685428 0.456318
0.132442 0.727557 -0.0879723
-0.505506 0.0184658 -0.459048
0.390933 -0.509997 0.456318
-0.270696 0.203759 -0.459048
0.433678 0.508576 0.456318
0.300681 -0.734076 0.344387
0.510119 -0.546628 -0.254054
-0.466286 0.726183 -0.459048
0.510119 0.457168 -0.212992
-0.392325 -0.734076 0.326752
0.286278 -0.734076 -0.0895323
0.0538144 0.727557 0.124416
-0.0841779 -0.734076 0.445664
0.510119 -0.217758 0.220272
-0.376027 -0.528042 -0.459048
-0.00136992 -0.734076 0.106798
0.283814 0.263631 0.456318
-0.508596 0.347288 0.033042
0.450406 -0.734076 0.14318
-0.508596 0.12428 -0.276031
-0.015094 0.608355 -0.459048
0.238155 0.00666462 -0.459048
0.494197 0.727557 0.097992
0.402024 0.212682 -0.459048
-0.508596 -0.0068033 0.319909
-0.508596 -0.309514 -0.210042
0.510119 0.227398 0.220807
-0.102573 -0.187327 -0.459048
-0.309635 -0.734076 0.0644057
0.38765 0.727557 0.273952
0.373076 -0.154584 0.456318
0.0449606 -0.347073 -0.459048
-0.428966 -0.164112 -0.459048
-0.508596 0.532024 -0.037275
0.510119 0.129817 0.034279
-0.508596 -0.0631605 -0.0434036
0.510119 -0.118203 0.0199961
0.0779076 -0.734076 0.288024
0.0900823 -0.179039 0.456318
0.341083 -0.603841 -0.459048
0.447209 -0.734076 -0.233492
-0.370938 -0.734076 -0.298219
-0.508596 -0.571264 0.248028
-0.0319177 -0.526793 0.456318
-0.251308 -0.186936 0.456318
-0.508596 0.44307 -0.362819
0.334614 0.638833 -0.459048
-0.379619 0.28497 0.456318
0.158357 -0.658616 -0.459048
0.329306 0.727557 -0.131167
-0.508596 -0.501012 -0.291417
0.510119 -0.503688 0.0230492
0.510119 0.621279 -0.297844
0.145802 0.698564 -0.459048
-0.133342 0.727557 0.324909
-0.504819 0.727557 0.156393
0.510119 0.529532 0.0159039
-0.508596 0.385671 0.298742
0.510119 -0.152411 -0.404247
0.209737 0.727557 0.277854
-0.268243 0.5191 0.456318
-0.508596 -0.591322 -0.00929919
-0.455429 0.109359 0.456318
0.342063 0.388502 -0.459048
-0.508596 0.10689 0.169874
0.510119 0.0638242 -0.304279
-0.508538 -0.425754 0.456318
0.0544052 0.589016 0.456318
-0.0596607 -0.734076 -0.21784
0.0883457 0.342535 -0.459048
-0.508596 -0.2376 -0.0362379
0.510119 0.426614 0.327374
0.510119 -0.112413 0.348387
-0.383225 -0.734076 -0.0839781
-0.508596 0.561648 0.340583
0.510119 -0.410771 0.319701
0.124442 -0.469873 0.456318
-0.508596 -0.200721 0.296223
-0.180394 0.563265 -0.459048
-0.109787 0.727557 0.162625
0.510119 -0.388119 -0.119867
-0.508596 -0.312582 0.108412
-0.248204 -0.734076 0.44594
0.381155 0.115208 0.456318
-0.13555 -0.734076 0.0162192
0.0536155 -0.50872 -0.459048
-0.0361098 0.328861 0.456318
-0.418559 0.62843 0.456318
0.510119 0.195913 -0.112518
-0.473873 0.563992 -0.459048
0.510119 0.37777 0.172989
-0.0945772 0.651122 0.456318
-0.172805 -0.734076 -0.326186
0.510119 0.0976851 0.320087
-0.00957466 -0.0497081 -0.459048
-0.0674454 0.126204 0.456318
0.100882 -0.734076 -0.270692
0.0918189 0.0381506 0.456318
0.510119 -0.682682 0.291373
0.203913 -0.274294 -0.459048
0.510119 -0.0835341 -0.25969
-0.228478 0.366956 -0.459048
0.402188 0.727557 -0.330278
0.510119 -0.396338 -0.280433
-0.369248 -0.514362 0.456318
-0.508596 0.205874 -0.137809
0.491239 0.577006 -0.459048
-0.108861 -0.653159 -0.459048
-0.394434 0.727557 -0.326192
-0.508596 -0.220075 -0.343797
-0.508596 -0.475619 0.131472
0.361018 -0.40805 -0.459048
-0.463774 0.727557 -0.172391
0.510119 0.615339 0.351568
0.510119 -0.367316 0.166113
0.290711 -0.621437 0.456318
-0.127887 0.256108 -0.459048
-0.388961 0.112205 -0.459048
0.0976719 0.057001 -0.459048
-0.0159894 0.727557 -0.100748
-0.208305 -0.42483 0.456318
-0.284509 0.727557 0.00772537
0.510119 -0.565251 0.387189
-0.508596 -0.504503 -0.135812
-0.252871 0.372664 0.456318
-0.349377 0.727557 0.33846
-0.0971724 0.727557 -0.413059
-0.0699562 -0.180842 0.456318
-0.508596 0.276594 0.195616
-0.508596 -0.584855 -0.43772
0.338596 0.398785 0.456318
0.475233 -0.550112 -0.459048
-0.459188 -0.734076 0.454811
-0.146341 0.727557 -0.167544
-0.508596 0.0602598 -0.14762
-0.13301 -0.338849 -0.459048
-0.508596 0.495555 -0.191585
0.510119 -0.138377 -0.119915
0.23197 -0.162992 0.456318
0.1179 0.727557 -0.23936
0.282637 0.540964 0.441554
-0.368335 0.349701 -0.459048
0.341099 -0.734076 0.0477537
-0.508596 0.346042 0.433752
0.393654 0.727557 0.000448115
-0.508596 0.290678 -0.318462
0.362856 -0.328861 0.456318
0.375096 -0.734076 -0.425764
-0.371004 -0.734076 0.189913
0.217356 0.138198 0.456318
0.12595 -0.734076 0.0250206
0.0697979 -0.329233 0.456318
-0.306118 0.134315 0.456318
-0.508596 0.0077124 0.0761001
0.510119 0.296611 -0.405397
-0.508596 -0.2908 0.409141
-0.261219 -0.455461 -0.459048
-0.177115 0.0605537 -0.459048
-0.331622 0.621678 -0.459048
-0.508596 -0.695478 -0.308965
-0.177334 0.0198415 0.456318
-0.200792 0.727557 -0.324844
-0.0561283 -0.734076 0.302468
0.510119 0.156244 0.454905
-0.508596 -0.715419 0.245659
-0.379226 -0.662635 -0.459048
0.510119 0.332317 -0.163654
0.510119 0.693262 0.23214
0.510119 -0.283007 -0.375792
0.301915 0.125697 -0.459048
0.510119 -0.520697 -0.117958
0.0514714 0.473167 -0.459048
-0.436808 -0.0517251 0.456318
0.395037 -0.102291 -0.459048
-0.508596 -0.719324 -0.0378038
0.478286 0.727557 -0.22359
0.510119 0.161379 -0.391074
0.252852 -0.492216 0.456318
0.03223 0.439746 0.456318
-0.508596 0.147086 -0.421409
0.235196 -0.139118 -0.459048
-0.508596 0.619959 0.0582431
0.134649 0.727557 0.455506
0.19578 -0.734076 -0.182397
0.217931 0.339578 -0.459048
-0.214012 -0.575623 -0.459048
0.0362747 0.217327 -0.459048
0.510119 -0.623412 0.0698299
-0.39379 -0.221692 0.456318
0.510119 -0.649035 -0.330336
-0.301215 -0.165986 -0.459048
0.252668 0.727557 -0.0175748
0.360824 -0.731132 0.456318
0.383681 -0.0117075 0.456318
0.510119 -0.457154 0.453732
0.510119 0.421605 -0.0626722
-0.508596 0.651194 -0.0806931
-0.373642 0.727557 0.101976
-0.508596 -0.0782467 -0.377936
0.164516 -0.734076 0.379348
-0.0698184 -0.734076 -0.0924031
0.377609 0.520901 -0.459048
0.352275 -0.734076 0.230414
-0.368454 -0.64947 0.456318
0.496222 -0.171865 0.456318
0.0362679 0.727557 -0.389107
0.130828 0.321906 0.456318
-0.508596 -0.156261 -0.142054
-0.382988 -0.404707 -0.459048
-0.139617 -0.0608467 -0.459048
0.510119 0.00700806 0.045985
-0.508596 -0.0313108 0.199196
-0.508596 0.232621 0.0767191
0.044363 -0.734076 0.428758
0.205383 -0.734076 0.264029
-0.405253 0.727557 0.227162
0.508256 0.401721 0.456318
0.510119 0.354109 -0.291995
0.385967 0.642567 0.456318
0.510119 -0.642576 -0.180952
-0.508596 0.420801 -0.0956619
0.252896 -0.732885 -0.459048
-0.508596 -0.48987 0.355212
-0.508596 -0.466095 -0.455746
0.510119 0.476227 -0.334671
0.404494 0.246049 0.456318
-0.392292 -0.286076 -0.459048
-0.119519 -0.734076 0.141372
0.510119 -0.261781 0.334004
0.100783 0.582184 -0.459048
-0.194779 -0.306981 0.456318
0.0114713 -0.225754 -0.459048
-0.377116 -0.0188625 -0.459048
0.510119 -0.218938 0.102301
-0.325124 0.727557 -0.102977
0.156291 0.727557 0.0497687
-0.16169 -0.0964141 0.456318
0.0105477 -0.643287 -0.459048
0.00041034 0.727557 0.0204657
-0.508596 0.690238 -0.355433
0.401641 -0.734076 -0.107248
0.434566 -0.313877 -0.459048
0.0999567 -0.734076 0.173755
0.510119 0.612509 0.104996
-0.241192 -0.734076 -0.0325464
-0.497619 0.217667 0.456318
-0.168019 -0.734076 0.354129
0.43137 -0.636156 0.456318
-0.508596 0.0123217 -0.304478
0.510119 0.120953 -0.203932
0.188279 0.607163 0.456318
0.000364742 0.727557 0.226432
0.510119 0.123259 0.172169
-0.508596 0.409594 0.178172
0.510119 -0.245376 -0.0787363
-0.278391 -0.734076 0.314799
-0.508596 -0.652244 0.340738
-0.43319 0.448744 -0.459048
-0.508596 -0.384675 -0.295706
-0.508596 -0.589108 0.131051
0.139226 -0.0648574 0.456318
-0.124391 -0.614923 0.456318
0.165933 -0.734076 -0.363219
-0.148846 0.322047 0.456318
-0.508596 -0.243685 -0.459042
0.510119 0.319788 0.292149
-0.329153 -0.734076 -0.193875
0.510119 0.259098 0.111165
0.229259 0.727557 -0.181476
0.417209 -0.734076 0.32681
0.274477 0.727557 -0.426991
0.48231 0.727557 0.334769
0.510119 -0.0464755 -0.364902
-0.215537 0.727557 0.095359
0.1594 0.727557 0.178538
0.510119 0.570682 -0.180301
-0.216292 0.727557 -0.0804166
0.235439 -0.569594 -0.459048
0.510119 0.716068 -0.0110979
0.510119 0.212401 0.330538
0.510119 -0.113174 0.134805
0.343967 0.727557 0.382878
0.381103 0.727557 0.116172
-0.508596 0.272823 -0.0500881
0.510119 -0.483246 -0.348198
0.445928 -0.734076 0.0145321
-0.377411 0.229062 -0.459048
-0.478787 0.722926 0.456318
-0.508596 0.636238 0.260641
0.339682 -0.734076 -0.214754
-0.341834 0.727557 -0.421705
-0.421291 -0.734076 0.0252544
-0.284158 0.0787328 -0.459048
-0.44244 -0.734076 -0.216773
-0.0768454 0.519369 -0.459048
-0.508596 0.0985156 0.295259
0.510119 0.422125 0.0744266
-0.508596 0.55842 -0.355165
-0.338667 -0.107062 0.456318
0.354749 0.0149528 -0.459048
-0.208104 -0.217876 -0.459048
0.135536 0.727557 -0.350295
-0.508596 0.474311 0.076039
-0.508596 0.568431 0.446761
-0.508596 -0.236589 0.196109
-0.239652 0.727557 0.325263
0.392771 0.727557 -0.452679
0.0061198 0.711237 0.456318
-0.00527292 -0.734076 -0.00818932
-0.236408 -0.734076 0.145672
-0.508596 -0.381501 -0.132755
0.501626 0.606173 0.456318
0.23148 0.616879 -0.459048
-0.358876 0.39725 0.456318
0.126229 -0.0444527 -0.459048
0.153759 -0.366702 -0.459048
0.439532 0.112905 -0.459048
0.238031 -0.734076 0.00347699
-0.508596 -0.108432 0.3669
0.251494 -0.734076 0.437131
-0.104835 -0.43622 0.456318
-0.508596 -0.199593 -0.23659
-0.177909 0.457819 -0.459048
-0.186584 0.581384 0.441554
0.0881914 -0.734076 -0.446917
0.318978 0.27483 -0.459048
-0.508596 0.462318 0.368636
-0.508596 0.0134122 0.421383
0.510119 -0.47201 0.148703
0.510119 0.721275 -0.32211
0.510119 -0.0238123 0.296171
0.160514 -0.258165 0.456318
0.510119 0.0780013 -0.053962
-0.0327821 0.226644 0.456318
0.273672 -0.34847 -0.459048
-0.0362631 -0.416408 -0.459048
-0.332828 -0.734076 -0.391892
-0.508596 -0.133424 0.0347825
-0.00724722 0.309616 -0.459048
-0.0256611 -0.734076 0.206207
-0.317001 0.619138 0.456318
-0.166191 0.727384 0.456318
0.304401 -0.246803 0.456318
-0.508596 -0.491634 0.0321106
0.0236896 -0.625106 0.456318
0.510119 -0.635838 0.182442
0.342542 0.727557 -0.25014
0.439445 -0.734076 -0.349758
-0.24787 -0.734076 -0.251183
0.439656 0.727557 -0.131967
0.0332914 0.12099 0.456318
-0.508596 0.224503 -0.245618
-0.508596 0.372643 -0.442529
-0.273584 0.275105 0.456318
0.510119 -0.190875 -0.313974
0.0228213 -0.415341 0.456318
0.0163318 -0.24353 0.456318
0.304145 -0.0849952 0.456318
-0.117347 0.727557 -0.273691
0.320867 -0.421877 0.456318
0.0362378 0.727557 -0.183488
0.0447462 -0.0891495 0.456318
0.467218 -0.0787279 0.456318
-0.508596 0.410837 -0.27077
0.510119 -0.410506 0.051841
0.449487 -0.379415 0.456318
-0.377819 0.716869 0.456318
0.15145 0.727557 0.359695
-0.429405 -0.734076 -0.375813
-0.380846 0.727557 -0.222947
0.303493 -0.0675321 -0.459048
0.510119 0.509816 0.377171
0.510119 0.511843 0.126824
0.510119 0.509257 -0.105362
0.154893 -0.734076 -0.0773722
0.190735 0.237682 0.456318
-0.162988 0.166415 -0.459048
-0.483449 0.727557 -0.266518
0.422652 0.306528 -0.459048
-0.43426 -0.329255 0.456318
0.489305 -0.734076 -0.146459
-0.107419 -0.734076 -0.407641
-0.508596 -0.602632 -0.332308
0.230875 0.343318 0.456318
0.193778 -0.567455 0.456318
-0.176352 0.429384 0.456318
0.0349203 -0.734076 -0.202023
0.33145 -0.498319 -0.459048
0.48566 -0.22571 -0.459048
-0.193829 0.727557 0.242757
0.510119 0.24087 -0.0181491
-0.508596 -0.439577 -0.219016
0.266443 0.450901 -0.459048
0.510119 -0.03742 -0.0369171
-0.508596 -0.469188 0.248809
-0.341438 -0.734076 0.405808
-0.508596 -0.559803 -0.211624
-0.152003 -0.519675 0.456318
-0.30583 -0.59351 -0.459048
0.308529 0.727557 0.224266
0.510119 -0.125499 0.233673
-0.508596 -0.252127 -0.128296
-0.156938 -0.734076 -0.230813
-0.301497 0.727557 -0.332989
0.117738 0.727557 0.263707
0.188106 0.0849322 -0.459048
0.510119 0.620819 -0.0010314
-0.102964 0.63802 -0.459048
-0.314404 -0.26939 0.456318
0.0941764 -0.268655 -0.459048
-0.508596 -0.395809 0.178316
-0.508596 0.303215 0.351787
-0.388455 0.176187 0.456318
-0.195587 0.110313 0.456318
0.328663 -0.734076 0.141205
-0.508596 0.6218 0.150397
0.135431 -0.551084 -0.459048
-0.0500347 -0.573994 -0.459048
0.510119 -0.473254 -0.198723
0.00164149 -0.734076 -0.287581
0.417191 -0.254962 0.456318
-0.0429728 0.727557 0.340545
-0.285722 -0.473899 0.456318
0.410606 0.337486 0.456318
-0.0802109 0.727557 0.0718517
-0.508596 0.144633 0.390903
-0.508596 0.65096 0.398357
-0.0942939 0.0220768 -0.459048
-0.503788 0.727557 0.0651867
-0.508596 0.0454627 -0.0102471
0.510119 -0.307491 -0.160417
0.510119 0.0032826 -0.23545
-0.508596 0.19436 -0.344671
-0.508596 0.578087 -0.156122
-0.508596 -0.0666308 -0.136898
0.060071 0.672055 -0.459048
-0.0216048 0.715239 -0.459048
0.510119 -0.304111 0.242847
0.510119 -0.58728 -0.0248355
-0.163974 -0.695566 0.456318
0.443384 0.654362 -0.459048
0.435902 0.727557 0.186423
-0.218127 -0.374653 -0.459048
0.510119 0.462611 0.246029
-0.508596 0.0729962 -0.372454
0.0443523 0.128931 -0.459048
-0.203155 -0.12926 -0.459048
-0.457918 -0.0802268 -0.459048
-0.508596 0.181651 0.240862
-0.508596 -0.401007 0.361173
0.44016 -0.461118 -0.459048
0.366079 -0.734076 -0.299375
-0.498262 -0.734076 -0.124347
0.0792387 -0.55641 0.456318
0.510119 -0.16523 -0.214965
-0.508596 -0.321308 0.0205442
0.510119 -0.652878 0.397521
0.141726 0.533705 0.441554
-0.0031628 0.522254 0.456318
-0.260709 -0.734076 -0.34137
-0.508596 0.46941 0.27156
0.418998 0.443217 -0.459048
0.510119 0.0537994 -0.399305
0.509349 -0.734076 -0.295281
-0.285444 -0.734076 0.218263
-0.508596 -0.215896 0.0825867
0.510119 -0.451168 0.242228
0.510119 -0.626042 -0.414516
-0.0506963 -0.310001 -0.459048
-0.0781958 0.405185 0.456318
-0.508596 0.510324 -0.27739
-0.14718 -0.234176 0.456318
0.509807 -0.734076 0.221339
0.293965 0.544183 -0.459048
0.510119 -0.414712 -0.0373226
-0.40554 0.0385716 0.456318
-0.508596 -0.443456 -0.359289
-0.243004 -0.0670111 0.456318
0.237845 0.727557 0.363016
-0.137398 0.34203 -0.459048
-0.508596 -0.298416 0.306426
0.510119 -0.0733541 -0.446944
0.437391 -0.655181 -0.459048
-0.231044 0.63675 -0.459048
-0.508596 0.444108 -0.0126599
-0.484894 -0.734076 0.353244
-0.26895 0.551073 -0.459048
0.507857 0.213683 -0.459048
-0.508596 0.0934202 0.0799983
-0.508596 -0.125687 0.254875
0.0751358 0.727557 -0.0214273
0.510119 0.246728 -0.191438
-0.508596 -0.645899 -0.081801
0.175524 0.0553963 0.456318
-0.408309 -0.438389 0.456318
0.186078 -0.734076 -0.276449
0.42507 0.727557 0.409467
0.121084 0.166223 -0.459048
-0.508596 0.7215 0.258007
0.123145 0.258278 -0.459048
-0.00393603 -0.142032 -0.459048
0.510119 0.326409 -0.0633979
-0.0891801 -0.734076 -0.312858
0.21661 0.727557 -0.0964778
0.313131 0.184303 0.456318
0.00498664 0.0335781 -0.459048
0.510119 -0.0315756 0.380293
-0.39217 0.542827 -0.459048
-0.27601 -0.655219 0.456318
0.510119 -0.0681045 -0.171159
-0.0285415 -0.734076 0.381965
0.305307 0.727557 0.308192
-0.368534 0.552854 0.456318
0.510119 -0.494718 0.34169
-0.508596 0.653709 -0.458302
0.0759459 -0.427832 -0.459048
-0.508596 -0.152222 -0.435798
-0.0486396 0.727557 -0.17786
0.510119 -0.704991 0.0886774
-0.508596 -0.316494 -0.0636715
-0.397536 -0.734076 0.105189
0.205114 -0.653521 0.456318
-0.508596 0.483063 -0.449847
-0.508596 0.00434397 -0.221572
-0.508596 0.323378 0.11277
-0.423021 0.727557 -0.0998142
0.158776 -0.389904 0.456318
0.124009 -0.734076 0.451967
0.114924 -0.734076 -0.164483
0.510119 -0.223343 0.00098462
0.134837 0.133332 0.456318
-0.074222 0.727557 0.432485
-0.508596 0.678706 -0.00291256
0.510119 0.546136 -0.378373
-0.508596 -0.500835 -0.0497476
-0.0907751 0.0310858 0.456318
-0.508596 -0.301473 -0.356414
-0.0388525 -0.717633 -0.459048
-0.476843 -0.501676 0.456318
0.492513 -0.734076 0.359546
-0.428774 0.727557 0.311339
0.510119 0.64318 -0.413016
-0.171465 -0.718999 -0.459048
0.110316 0.648645 0.456318
-0.508596 -0.0733638 0.0977019
0.510119 -0.310428 -0.288581
0.316543 -0.543565 0.456318
-0.508596 -0.655337 0.190543
-0.508596 -0.652491 0.0674724
0.243572 -0.650672 -0.459048
-0.23247 0.27568 -0.459048
-0.347832 -0.734076 -0.009761
0.510119 0.371504 -0.371217
0.473457 -0.544164 0.456318
-0.260931 -0.353612 0.456318
0.510119 -0.371914 0.390695
-0.0976613 0.727557 -0.103048
0.510119 -0.33559 -0.0524136
0.510119 -0.602794 0.282438
-0.508596 0.18682 0.142771
0.279644 0.078888 0.456318
-0.0201156 0.621143 0.456318
0.152643 0.418201 -0.459048
0.360826 0.550419 0.456318
-0.434613 0.371458 0.456318
0.510119 0.645898 -0.207562
-0.508596 -0.41553 0.056655
-0.446022 0.188185 -0.459048
0.0118671 0.0442073 0.456318
0.510119 0.5601 0.294145
-0.458337 -0.672075 -0.459048
0.510119 -0.562493 -0.366555
-0.0740658 0.727557 0.267303
-0.434087 -0.13232 0.456318
0.0865848 -0.734076 -0.357954
0.510119 0.142662 -0.29455
0.00169388 0.403882 -0.459048
-0.508596 0.660245 -0.197912
0.449342 0.0671092 0.456318
-0.508596 0.00304491 -0.0867916
-0.2046 0.727557 -0.234507
-0.508596 0.140153 -0.0937633
0.510119 -0.568904 0.140305
-0.495649 0.727557 -0.0656613
0.0675918 0.727557 -0.310381
0.361046 -0.734076 -0.0397461
0.510119 0.412429 -0.140824
-0.151082 -0.734076 -0.0607755
0.510119 -0.394273 -0.198013
-0.508596 -0.13945 -0.0613644
0.28936 0.459729 0.456318
0.510119 0.544399 -0.282987
-0.300868 0.396687 -0.459048
-0.293634 0.727557 0.0999809
-0.308589 -0.380603 -0.459048
-0.180725 0.727557 -0.404123
-0.424376 -0.595046 0.456318
-0.508596 0.158086 -0.204718
-0.306414 0.300495 -0.459048
0.0911097 -0.734076 0.0946537
-0.355348 0.727557 -0.0312454
-0.508596 0.0325876 0.243313
-0.360499 -0.0947008 -0.459048
-0.508596 0.357343 -0.358208
-0.232247 -0.734076 0.0612429
-0.292608 -0.734076 -0.0904627
0.279633 -0.734076 0.203646
-0.425368 0.727557 0.396336
-0.424513 0.296664 -0.459048
0.510119 -0.320368 -0.444311
-0.508596 -0.529812 -0.363048
-0.508596 -0.20384 0.391018
0.271824 -0.734076 -0.169926
0.510119 -0.275384 0.16914
-0.508596 -0.563294 0.332041
0.510119 -0.405497 -0.356787
0.0903258 -0.622789 -0.459048
-0.508596 0.550635 0.0914414
0.510119 0.166169 0.267249
0.510119 0.104623 0.398162
-0.45935 -0.52479 -0.459048
0.0373166 0.35086 0.456318
-0.0660047 -0.734076 0.0484027
-0.189897 -0.483319 -0.459048
-0.508596 -0.313703 0.231494
-0.188004 0.727557 0.381662
0.335949 0.320984 0.456318
-0.508596 -0.679809 0.433466
-0.140891 -0.734076 -0.14905
-0.508596 -0.645465 -0.25102
0.00322093 -0.159601 0.456318
-0.508596 0.319774 -0.120439
0.510119 -0.0399337 0.114176
-0.106173 0.206588 0.456318
0.486135 0.348399 -0.459048
0.304473 -0.734076 -0.373792
0.270205 0.21399 -0.459048
0.510119 0.359414 0.393262
0.510119 0.626346 0.186297
0.457031 0.669307 0.456318
0.43128 0.432733 0.456318
-0.010703 -0.734076 -0.139873
-0.315035 -0.240472 -0.459048
-0.317378 -0.569546 0.456318
-0.209189 0.727557 0.000643119
-0.0393512 0.216493 -0.459048
-0.40297 0.646702 -0.459048
0.510119 0.0734075 0.115325
0.510119 0.169423 0.1124
-0.320829 0.462416 0.456318
0.425831 -0.734076 0.401755
-0.508596 0.448045 0.44368
0.510119 0.0925092 0.245158
0.353774 0.727557 -0.388585
0.3451 -0.326303 -0.459048
-0.321181 0.727557 0.407699
0.510119 -0.166477 0.296778
-0.338287 0.727557 0.260292
0.510119 -0.733781 -0.0236606
-0.445663 -0.734076 0.188059
0.315778 -0.14107 -0.459048
0.38628 0.727557 -0.0799849
-0.508596 -0.0690504 0.447741
0.357926 0.727557 0.455894
-0.508596 0.556305 0.236987
-0.326228 -0.191088 0.456318
-0.0466759 -0.601692 0.456318
-0.462106 -0.250398 0.456318
0.510119 -0.218329 -0.147605
0.483178 0.228317 0.456318
0.510119 -0.303054 0.098643
0.510119 -0.200739 0.375545
0.510119 0.590605 -0.0819155
-0.0784112 -0.107653 0.456318
0.510119 0.157609 -0.0496505
0.510119 -0.674756 -0.25185
0.400901 -0.561224 -0.459048
0.461769 -0.145494 -0.459048
-0.508596 -0.28143 -0.28581
0.438323 -0.734076 0.237649
-0.508596 -0.129056 -0.304543
0.00440065 0.537715 -0.459048
-0.128135 -0.734076 0.289026
0.248788 -0.407494 0.456318
0.510119 -0.593582 -0.11152
-0.0928968 0.579497 0.441554
0.510119 0.290734 0.184382
0.51008 0.131786 -0.459048
0.229332 0.727557 0.199467
-0.508596 0.293928 0.279437
0.385232 0.727557 -0.191003
0.157956 -0.205861 -0.459048
-0.300615 0.206978 0.456318
-0.414269 -0.734076 0.257334
0.510119 0.53115 0.446765
0.510119 0.674866 0.393445
0.340342 0.727557 0.0499414
0.104256 0.466621 0.456318
-0.467668 0.283915 0.456318
-0.0475986 0.727557 -0.360041
0.510119 -0.701293 -0.380704
0.232129 -0.240678 0.456318
0.510119 0.355267 0.102279
0.23186 -0.0883685 0.456318
-0.508596 0.365154 -0.04944
-0.401015 -0.7316 -0.459048
-0.508596 -0.725816 0.0393675
0.431752 0.586675 0.456318
-0.508596 -0.674692 -0.397427
0.159866 -0.734076 -0.453133
0.510119 0.726403 0.16831
0.0911698 -0.734076 0.374233
-0.0674492 0.727557 -0.0378863
0.213357 0.511263 0.456318
0.510119 0.0391547 0.368146
0.141276 0.727557 -0.171631
0.510119 0.710178 -0.160783
0.510119 0.628234 0.272228
-0.450213 0.727557 -0.37322
0.294352 -0.271313 -0.459048
-0.0582501 -0.251341 0.456318
-0.147383 -0.255147 -0.459048
-0.508596 0.426331 -0.174842
-0.0200205 -0.681304 0.456318
-0.508596 -0.646158 0.269823
-0.21644 0.727557 0.16652
-0.159299 0.687928 -0.459048
-0.11402 -0.407266 -0.459048
0.4062 -0.734076 0.0877548
0.510119 -0.158491 -0.0382869
0.200889 0.727557 -0.425243
-0.508596 0.0822778 -0.218991
-0.508596 -0.557925 0.0674801
-0.488151 0.0871093 -0.459048
0.447949 -0.734076 -0.419998
0.0542354 -0.0801783 -0.459048
0.165248 -0.186118 0.456318
0.0639206 0.727557 -0.118543
-0.508596 0.287402 -0.388955
-0.130638 -0.554701 -0.459048
-0.221602 0.649493 0.456318
-0.199163 0.505869 0.456318
0.0545216 0.282751 0.456318
0.185698 -0.734076 0.196607
-0.508596 -0.57412 -0.126655
0.510119 -0.492418 -0.417803
-0.453425 -0.320508 -0.459048
-0.508596 0.518171 -0.119682
0.510119 0.510652 -0.446647
-0.0356538 0.727557 0.125897
0.188695 0.727557 0.115059
0.0740754 0.727557 0.0481873
-0.18189 -0.650344 -0.459048
-0.508596 -0.541164 0.408898
-0.416637 0.0381738 -0.459048
-0.508596 0.0782312 0.370951
-0.346455 0.166916 -0.459048
-0.164973 -0.734076 0.0891732
-0.361037 0.727557 0.173919
0.225423 0.727557 0.0459782
-0.216928 0.727557 -0.166548
0.28237 0.617077 0.456318
-0.0755094 -0.085945 -0.459048
0.367379 -0.589979 0.456318
-0.153906 -0.164791 0.456318
0.510119 0.264602 -0.116261
-0.508596 0.384626 0.376923
0.369766 0.482322 0.456318
0.510119 0.428197 -0.285587
0.510119 0.100278 -0.1189
-0.424838 -0.611363 -0.459048
0.510119 0.306086 -0.227057
0.50637 0.727557 -0.0785772
0.510119 0.379487 -0.228314
-0.37384 0.109218 0.456318
-0.461971 -0.415972 -0.459048
0.510119 0.669127 0.0475664
0.344119 -0.672251 -0.459048
-0.23444 0.145721 -0.459048
-0.366208 -0.191371 -0.459048
-0.0940213 -0.734076 0.22974
-0.508596 0.342515 -0.267746
0.510119 -0.110519 -0.34105
-0.246234 0.727557 -0.384765
0.399368 -0.0865698 0.456318
-0.508596 -0.727233 -0.23225
-0.290281 -0.517236 -0.459048
-0.508596 0.218259 0.0100363
0.0326385 -0.734076 0.339312
-0.243521 0.161275 0.456318
0.324462 0.727557 0.158164
0.510119 -0.513308 -0.0442613
-0.33268 -0.7122 -0.459048
0.510119 -0.575149 -0.18941
0.192467 -0.0595205 -0.459048
0.066706 -0.0117289 -0.459048
0.510119 -0.327927 0.318821
-0.0320535 -0.484116 -0.459048
0.473184 -0.734076 -0.0805874
0.447436 0.727557 -0.380765
-0.508596 0.254235 0.400304
0.4236 0.168 0.456318
0.510119 -0.371789 0.240791
-0.0565736 -0.242625 -0.459048
0.510119 0.197264 0.0508252
0.510119 -0.070009 0.186785
0.353974 -0.734076 0.297905
0.343195 -0.663765 0.456318
0.268387 -0.734076 0.0635704
0.238289 0.147664 -0.459048
0.181743 0.727557 -0.260621
0.510119 0.231775 -0.387394
0.357106 0.0872655 -0.459048
-0.508596 -0.447687 -0.0909478
0.400001 -0.734076 -0.185026
-0.126527 0.0880115 0.456318
-0.508596 0.389198 0.0991708
0.138064 -0.734076 0.258168
0.317942 0.727557 -0.313981
0.193414 0.561666 -0.459048
0.309684 0.727557 -0.0670758
-0.434065 0.53883 0.456318
0.510119 -0.666531 0.00557741
0.510119 0.28776 0.350955
-0.508596 0.362601 0.225874
0.240849 -0.205801 -0.459048
0.0182528 -0.734076 0.257736
0.0910544 -0.734076 -0.0402438
0.510119 -0.179302 0.156021
0.0724184 -0.0283983 0.456318
-0.508596 0.621764 -0.37614
-0.508596 0.613081 -0.0149689
0.383993 -0.400324 0.456318
-0.448834 -0.657008 0.456318
-0.119445 -0.0290251 0.456318
-0.440181 0.727557 0.101925
0.167041 0.384425 0.456318
-0.508596 0.0203091 0.141412
0.510119 -0.236179 0.446775
-0.433162 0.364389 -0.459048
0.0496417 -0.496925 0.456318
0.455524 0.727557 0.273974
-0.410933 -0.471549 -0.459048
0.510119 0.0560871 -0.189728
0.510119 0.275536 -0.327529
0.0931752 0.727557 0.180742
-0.205963 -0.301363 -0.459048
0.186637 0.727557 -0.0227923
0.223806 -0.734076 -0.111545
0.253224 0.0728245 -0.459048
-0.236196 0.0160598 -0.459048
0.445161 -0.472083 0.456318
-0.358446 0.727557 -0.1601
-0.378258 -0.286507 0.456318
-0.242856 0.469606 -0.459048
0.330155 0.468088 -0.459048
0.199583 -0.453313 0.456318
0.510119 0.429684 0.00279108
-0.21384 0.310948 0.456318
0.510119 0.170086 0.390322
-0.508596 0.211334 -0.449628
0.510119 0.435807 0.141747
0.510119 0.493161 -0.0389806
0.427742 0.727557 -0.269702
-0.508596 0.267844 -0.196243
0.261796 -0.497899 -0.459048
-0.434267 -0.734076 -0.139079
-0.27514 0.0764888 0.456318
0.128953 -0.485834 -0.459048
-0.508596 0.208545 -0.0625189
0.510119 0.38316 0.238212
-0.508596 0.523375 0.0319583
0.0294078 -0.734076 0.170913
-0.126691 -0.36025 0.456318
0.226409 0.268404 -0.459048
0.0686095 0.40483 -0.459048
-0.213381 -0.240109 0.456318
0.510119 -0.16172 0.0710378
-0.440782 -0.734076 -0.0534779
-0.275817 -0.734076 0.38701
-0.508596 -0.0827221 0.307189
-0.457991 -0.734076 -0.279896
0.510119 -0.0875341 -0.079493
0.445174 0.727557 0.0554442
0.447759 0.727557 -0.0507294
0.422985 0.592777 -0.459048
-0.305287 0.00332432 -0.459048
0.510119 0.443456 0.406824
-0.255915 0.727557 0.261098
0.394748 -0.180352 -0.459048
-0.508596 -0.0558745 0.0208634
0.282017 0.331047 -0.459048
0.194367 -0.0312264 0.456318
-0.508596 -0.511962 0.184799
0.288707 -0.734076 0.26753
-0.12855 0.727557 -0.356693
0.510119 -0.00739898 -0.419581
-0.0922226 -0.549523 0.456318
-0.383433 -0.712119 0.456318
-0.508596 -0.168281 0.206571
0.244079 0.680747 -0.459048
-0.394805 0.710518 -0.459048
0.3116 0.0230528 0.456318
-0.42948 -0.228442 -0.459048
-0.320082 0.727557 -0.27141
0.0747167 0.702177 0.456318
0.121344 0.25564 0.456318
0.210323 0.727557 -0.361687
0.233268 0.423084 0.456318
-0.258027 0.449042 0.456318
-0.508596 -0.350356 0.432976
-0.508596 0.707383 -0.131188
-0.142082 0.511859 -0.459048
0.26512 -0.411984 -0.459048
0.432755 -0.180723 0.456318
0.510119 -0.125652 0.414164
0.19255 -0.71799 0.456318
0.0147922 -0.55965 -0.459048
0.510119 -0.563843 0.0463556
0.283374 -0.314705 0.456318
-0.508596 -0.733495 -0.37217
-0.341811 0.0538518 0.456318
-0.508596 -0.15076 -0.371862
0.156133 0.61411 -0.459048
0.4443 -0.706479 0.456318
-0.0846872 -0.734076 -0.030315
-0.257693 0.595582 0.456318
-0.00767604 -0.310137 0.456318
0.510119 -0.507116 0.274242
0.412466 -0.254087 -0.459048
0.510119 0.182078 -0.174729
0.0935778 -0.414152 0.456318
0.103458 0.381329 0.456318
0.510119 -0.45966 -0.273993
0.476447 0.324127 0.456318
0.191064 -0.734076 0.0463993
0.293085 -0.180669 0.456318
0.272281 -0.734076 -0.244458
-0.508596 -0.103824 0.195169
-0.508596 -0.733276 0.179219
0.510119 0.656804 -0.350433
0.439601 -0.397663 -0.459048
0.0146117 0.727557 0.305253
-0.209178 -0.492327 0.456318
0.151349 0.348864 -0.459048
0.153578 -0.734076 0.104928
0.242859 -0.734076 -0.388251
0.0787895 -0.252735 0.456318
0.510119 0.708919 -0.39512
0.510119 -0.524366 0.0956714
0.187703 0.693497 0.456318
0.510119 -0.0564111 0.0321426
0.367274 0.0538295 0.456318
-0.0440196 -0.452267 0.456318
0.156669 -0.11706 -0.459048
-0.508596 0.570317 -0.218399
-0.384633 0.727557 0.0401873
0.494115 -0.63489 0.456318
0.208544 -0.734076 0.334699
0.296556 -0.734076 -0.0190038
0.510119 -0.715362 0.150506
-0.0688201 0.29848 -0.459048
-0.140999 0.727557 0.0866692
0.45025 -0.00621343 0.456318
0.101247 0.511042 -0.459048
0.063909 -0.734076 0.0171351
0.471099 -0.734076 0.295077
0.510119 -0.450531 -0.123313
-0.135814 -0.734076 0.407693
-0.213576 -0.131158 0.456318
-0.325445 -0.734076 0.147219
-0.508596 -0.605649 0.394758
-0.300513 -0.734076 -0.293405
-0.115688 -0.294313 0.456318
-0.265194 0.727557 -0.119927
0.510119 0.107909 -0.359331
-0.321821 0.314238 0.456318
-0.145271 0.1472 0.456318
-0.508596 0.0100961 -0.366489
0.510119 0.0713265 0.0135804
0.405562 -0.020603 -0.459048
0.510119 0.681811 0.303491
-0.508596 -0.382068 0.108836
0.510119 -0.259404 0.0540685
-0.508596 -0.651567 0.00486336
-0.345456 -0.734076 -0.132973
0.510119 -0.336401 -0.34468
-0.24329 -0.64342 -0.459048
-0.508596 0.661057 0.317203
-0.186394 -0.734076 -0.386427
-0.322163 0.683225 0.456318
0.165039 -0.120827 0.456318
-0.491628 0.638653 0.456318
0.0966426 0.727557 -0.435794
-0.0129576 0.727557 0.400071
-0.508596 -0.260026 0.0258142
0.0209508 0.727557 -0.050418
-0.298993 -0.403751 0.456318
-0.354093 -0.734076 0.269379
0.420989 0.727557 0.332343
0.102547 0.727557 0.396677
0.06648 -0.669034 0.456318
-0.406706 -0.734076 0.386337
-0.122697 -0.124959 -0.459048
0.498345 0.0600405 -0.459048
-0.508596 -0.0325429 0.381009
-0.182605 -0.0132278 -0.459048
0.239851 0.512754 -0.459048
0.510119 -0.723845 -0.215542
0.0545643 0.502443 0.456318
0.362844 0.165889 -0.459048
-0.508596 0.154292 0.0756791
0.430657 -0.321402 0.456318
-0.0279313 0.44964 0.456318
0.450658 -0.0678416 -0.459048
-0.157497 0.727557 -0.0646523
0.0208606 -0.729329 -0.459048
-0.508373 0.508348 0.456318
-0.508596 0.13397 -0.337459
0.00493813 -0.734076 -0.0758306
-0.111686 0.577945 -0.459048
0.510119 0.527434 -0.224771
-0.1025 0.162957 -0.459048
-0.362169 -0.0342902 0.456318
-0.334451 -0.475841 -0.459048
-0.180883 0.224212 -0.459048
-0.508596 -0.0347316 0.266241
-0.181576 -0.422856 -0.459048
-0.508596 -0.259615 0.137633
0.292163 0.727557 0.41409
0.510119 0.489804 0.0614952
-0.306851 -0.723676 0.456318
-0.0532634 -0.392534 0.456318
-0.508596 0.290025 0.057889
0.510119 0.0338886 0.259757
0.43799 0.521954 -0.459048
0.510119 -0.614406 -0.253868
0.12123 0.727557 0.12728
-0.508113 0.727557 -0.402873
0.32685 -0.734076 -0.145218
-0.126462 0.0932689 -0.459048
0.293918 0.727557 -0.214504
-0.508596 -0.335467 0.175292
0.507476 -0.397025 0.456318
-0.0674192 -0.734076 0.108598
-0.291177 0.727557 -0.0520216
0.510119 -0.665728 -0.125513
-0.0768803 0.284756 0.456318
-0.13368 0.259976 0.456318
-0.0493643 0.459518 -0.459048
-0.382167 -0.734076 -0.221886
0.510119 0.502378 0.317705
0.510119 0.230195 0.395777
0.510119 -0.351759 -0.240525
0.447365 0.172117 -0.459048
-0.283826 0.686926 -0.459048
-0.508596 0.0900906 0.429438
0.441228 0.727557 0.125463
-0.112381 0.727557 0.380761
0.324599 0.723645 -0.459048
-0.0612227 0.727557 -0.236538
0.510119 0.597762 -0.243133
-0.508596 0.253444 0.140761
0.0781434 -0.211365 -0.459048
-0.00430566 0.163066 -0.459048
-0.253292 0.727557 0.383105
-0.508596 0.681242 0.119381
0.510119 -0.0963287 0.285328
0.510119 -0.365899 0.090904
-0.508596 -0.252266 0.3436
-0.508596 -0.323504 -0.152479
-0.310122 0.558252 0.441554
-0.438122 0.208397 0.456318
-0.415727 0.727557 -0.270762
-0.270776 -0.115287 -0.459048
-0.508596 0.538435 -0.418612
0.510119 -0.0466783 0.241044
0.510119 0.020735 -0.026673
0.151641 -0.52613 0.456318
0.348762 -0.734076 0.398621
0.510119 -0.429898 0.38003
0.368299 -0.213326 0.456318
-0.0940824 0.343784 0.456318
0.0303702 0.651399 0.456318
0.510119 0.182073 0.173124
-0.508596 -0.0508025 -0.454289
-0.0769977 -0.666948 0.456318
0.510119 -0.299471 -0.102211
0.510119 0.375372 -0.0264392
-0.448832 -0.0108926 -0.459048
0.129008 0.108082 -0.459048
-0.218123 -0.645773 0.456318
-0.508596 0.11479 0.227976
0.510119 0.00691686 -0.318238
0.510119 -0.629092 0.344075
0.0587273 0.727557 0.230106
-0.508596 -0.327257 0.363444
0.510119 0.27372 0.256463
0.510119 -0.226769 -0.39095
-0.197422 -0.734076 0.417562
0.128446 -0.734076 0.316834
0.163389 -0.734076 -0.0195025
-0.508596 0.531189 0.390117
-0.336394 -0.329551 -0.459048
-0.508596 -0.250323 -0.208231
0.510119 0.271971 0.0412031
-0.445564 -0.19478 0.456318
0.218824 0.727557 0.421161
0.302855 -0.715174 0.456318
-0.508596 0.725763 0.406612
-0.508596 -0.045581 -0.302599
-0.508596 0.722844 -0.208764
0.0433336 0.616615 -0.459048
0.159002 -0.316023 0.456318
-0.48751 0.423935 -0.459048
-0.395317 -0.381701 0.456318
-0.508596 0.333201 0.176111
0.219771 0.397334 -0.459048
-0.508596 0.14802 0.448548
0.494919 0.468983 0.456318
-0.361706 0.061327 -0.459048
-0.508596 -0.449229 -0.152275
0.155157 0.0376267 -0.459048
-0.260084 -0.734076 -0.194851
0.494055 0.283038 -0.459048
-0.36755 0.447037 -0.459048
0.510119 -0.677408 0.231683
-0.0379075 -0.734076 -0.339664
0.510119 0.673182 -0.0561575
0.510119 0.0724771 -0.247467
0.303646 -0.1976 -0.459048
-0.508596 0.455597 0.212481
0.0730635 0.727557 0.308639
0.510119 0.502604 -0.173075
-0.508596 0.239626 0.239459
-0.137249 0.727557 0.233549
-0.158821 -0.734076 0.183025
0.382611 0.727557 0.207325
-0.508596 -0.211037 -0.400317
0.424203 0.0531077 -0.459048
0.487795 0.727557 0.392927
0.299208 0.0387763 -0.459048
-0.0839305 -0.734076 0.367624
0.354232 0.573118 -0.459048
-0.508596 -0.364699 -0.225084
0.0238206 -0.293931 -0.459048
-0.325154 0.561272 -0.459048
-0.301663 0.727557 0.307137
0.510119 -0.139632 -0.270173
-0.508596 -0.471599 0.409259
-0.508596 -0.0197755 -0.169871
0.274344 0.136202 0.456318
-0.508596 0.604993 -0.321688
-0.368794 -0.601276 -0.459048
-0.508596 0.602192 -0.434048
-0.508596 -0.254126 0.250263
0.0139239 0.727557 -0.336764
-0.0699145 0.727557 0.21057
-0.134502 0.40503 -0.459048
0.510119 -0.571821 0.330092
-0.508596 0.0825116 -0.0533032
-0.13462 0.529301 0.456318
0.393637 0.364755 -0.459048
-0.0559954 0.0639823 -0.459048
0.510119 0.477574 0.180195
-0.508596 0.58142 -0.0651975
-0.362644 0.292956 -0.459048
0.292946 -0.573831 -0.459048
-0.14898 0.667125 0.456318
0.510119 0.679357 -0.253323
-0.454781 -0.734076 0.12364
-0.508596 -0.696919 0.299178
-0.508596 -0.460562 0.304756
-0.508596 0.586331 0.287219
-0.0758936 0.699552 -0.459048
0.510119 -0.425022 0.180062
0.338302 0.609154 0.456318
-0.225836 -0.734076 -0.0964826
-0.352342 -0.445841 0.456318
0.510119 -0.511917 0.428066
-0.508596 -0.58105 -0.0647639
0.237573 0.206292 0.456318
-0.154734 0.615687 -0.459048
0.264253 -0.564626 0.456318
0.510119 -0.513107 -0.300388
0.510119 -0.189743 -0.0875561
-0.508596 -0.115468 -0.19587
0.1072 -0.323404 -0.459048
-0.237594 0.0346424 0.456318
-0.464635 0.0128456 0.456318
-0.327258 -0.0496208 -0.459048
-0.508596 0.475984 -0.08291
0.0296959 0.727557 0.178775
0.510119 -0.658971 0.120418
-0.412285 0.727557 0.151646
-0.300694 0.727557 -0.163038
-0.508596 0.497485 -0.375363
-0.508596 -0.204493 0.146425
-0.289463 -0.133395 0.456318
0.510119 -0.446818 0.0941725
0.0243086 -0.5468 0.456318
0.510119 -0.273577 -0.0306653
-0.0467021 0.0744815 0.456318
-0.461864 -0.395322 0.456318
0.385659 -0.734076 -0.371061
0.510119 0.167185 -0.234919
0.000737288 0.394091 0.456318
-0.426576 0.690502 0.456318
0.510119 0.547501 0.0843922
-0.508596 -0.204628 0.0265777
0.247171 -0.0507811 -0.459048
0.0676742 -0.673277 -0.459048
0.0169585 -0.431552 -0.459048
-0.225814 -0.734076 0.33204
-0.508596 0.42842 0.0451478
-0.163431 0.727557 0.182303
0.294077 0.727557 0.0190803
-0.252209 -0.734076 0.262453
-0.183782 0.727557 0.0497144
-0.286844 -0.734076 -0.00147476
-0.196911 -0.0665513 -0.459048
-0.508596 0.517622 0.298364
-0.508596 -0.523403 0.275359
0.2742 0.377319 0.456318
0.510119 -0.599057 -0.306739
-0.394931 -0.350981 -0.459048
-0.506372 -0.734076 0.424995
-0.508596 -0.593119 -0.267624
-0.0201282 0.154055 0.456318
-0.190715 0.727557 0.300438
-0.508596 -0.203559 -0.102758
0.510119 -0.173473 -0.454889
-0.508596 0.083184 -0.316759
-0.0577078 0.727557 0.0160698
0.138981 0.727557 -0.295579
-0.508596 -0.49282 -0.403475
0.142109 -0.420222 -0.459048
0.0620414 -0.734076 0.214817
-0.256509 0.727557 0.0547088
0.21918 -0.35308 -0.459048
0.510119 -0.267682 0.388362
-0.17745 -0.601805 0.456318
-0.262417 -0.286213 0.456318
0.510119 0.0699848 0.440413
-0.508596 0.289329 -0.246476
-0.187656 0.360468 0.456318
0.210176 -0.521189 -0.459048
-0.463998 0.621344 -0.459048
-0.0639081 -0.734076 0.167265
0.510119 0.516606 0.25393
-0.508596 0.481961 0.135535
0.510119 0.30921 0.132612
-0.508596 0.111336 -0.166608
-0.508596 -0.355837 -0.354839
-0.508596 0.624434 0.207552
0.448345 0.387445 -0.459048
0.510119 0.547673 -0.0486261
-0.279582 -0.734076 -0.144149
0.510119 0.221604 -0.334024
0.0568675 -0.734076 -0.302528
0.510119 -0.222462 0.296528
-0.350903 0.678555 -0.459048
-0.508596 0.691198 0.196544
0.0374932 -0.734076 0.0688917
-0.508596 -0.448054 -0.272604
0.510119 0.051926 0.165141
0.029302 0.727557 -0.237277
-0.421509 -0.500002 0.456318
-0.0930365 -0.717004 -0.459048
0.509279 0.671753 -0.459048
0.0204803 -0.0129881 0.456318
-0.0472745 0.564746 -0.459048
0.510119 -0.261775 -0.325996
0.0725852 0.290788 -0.459048
0.510119 0.665183 0.446649
0.234387 0.727557 -0.24834
-0.508596 -0.503208 -0.18982
-0.186004 0.117576 -0.459048
-0.354364 0.727557 -0.362349
-0.0994387 -0.734076 -0.254283
0.210977 -0.734076 -0.0449132
0.413055 -0.734076 0.182069
-0.508596 -0.404322 -0.429052
-0.508596 0.461496 -0.312222
-0.0710069 -0.139966 -0.459048
0.42498 -0.734076 -0.0567541
0.510119 -0.0403799 -0.29175
0.456793 -0.605048 -0.459048
0.510119 0.18349 -0.00109446
0.294974 0.602587 -0.459048
-0.473109 0.727557 0.218277
0.252099 -0.734076 0.383528
0.113111 -0.734076 -0.218057
0.510119 -0.600721 0.222861
0.273165 -0.734076 0.13964
-0.207949 -0.36113 0.456318
0.322837 0.508019 0.456318
-0.181183 0.29085 -0.459048
-0.388968 0.491 0.456318
0.329436 -0.0379167 0.456318
-0.106777 0.727557 -0.208616
-0.508596 -0.681674 -0.125434
0.104297 -0.0987707 -0.459048
0.297161 -0.454594 -0.459048
0.287998 -0.367804 0.456318
0.184729 0.727557 -0.13919
-0.132349 0.460819 0.456318
-0.300222 0.413285 0.456318
-0.505281 -0.219186 0.456318
-0.364713 -0.734076 0.0632386
-0.508596 0.277852 0.00604697
-0.0604252 -0.631192 -0.459048
-0.0609569 -0.734076 -0.157206
-0.508596 -0.0337779 0.133174
0.284555 0.727557 -0.374844
0.106455 0.586953 0.446106
-0.00762753 -0.0977588 0.456318
0.510119 0.586725 0.0396246
0.0892402 0.214346 -0.459048
0.0297929 0.347583 -0.459048
-0.508596 -0.180243 -0.290667
0.409894 0.707933 0.456318
-0.0295282 -0.363864 -0.459048
-0.438276 0.131504 -0.459048
-0.268439 -0.536918 0.456318
0.510119 0.374081 0.321057
0.510119 -0.00179139 -0.0759936
0.179232 0.186074 0.456318
0.164972 -0.315086 -0.459048
0.192815 0.306702 0.456318
0.0524949 0.727557 0.415714
-0.508596 -0.658357 -0.45073
0.510119 -0.405094 0.126407
0.19744 0.727557 0.329153
0.079847 -0.55444 -0.459048
-0.237595 -0.517602 -0.459048
0.106726 -0.106318 0.456318
0.510119 0.603705 -0.347499
0.38291 -0.487133 -0.459048
-0.508596 -0.641494 0.12613
-0.0549069 -0.734076 -0.404391
-0.26069 -0.21942 -0.459048
0.347746 0.727557 -0.025241
-2.13857e-05 0.483847 -0.459048
0.326844 0.204195 -0.459048
0.510119 -0.373271 -0.00498872
-0.508596 0.381923 -0.146725
0.303805 -0.734076 -0.446038
-0.508596 -0.283271 -0.405719
0.293536 -0.62637 -0.459048
0.396005 0.387957 0.456318
0.510119 0.00917057 0.134656
-0.508596 0.0520686 0.0418317
0.000736318 -0.361945 0.456318
-0.451323 0.516633 -0.459048
-0.0427526 0.692211 0.456318
-0.508596 0.218959 -0.390983
-0.508596 -0.350623 -0.0229029
0.510119 0.230666 -0.0733489
0.128832 -0.573259 0.456318
-0.163861 -0.595165 -0.459048
-0.0851791 0.727557 -0.323598
0.364753 0.192864 0.456318
0.131081 -0.734076 -0.324217
0.0041096 0.0955274 -0.459048
0.348118 0.318259 -0.459048
0.310807 -0.385234 -0.459048
-0.508596 0.0207505 0.369693
-0.508596 -0.137485 0.410268
-0.372715 0.727557 0.399582
-0.160154 -0.40479 0.456318
-0.205965 -0.734076 -0.203184
0.510119 -0.585255 0.435317
-0.508596 0.0434506 -0.255986
-0.508596 -0.165502 -0.00778961
-0.508596 0.617217 -0.120093
-0.406399 0.425939 0.456318
0.510119 0.328049 0.240838
-0.508596 -0.0018496 0.0112519
0.336232 0.661059 0.456318
-0.508596 0.695259 -0.298474
0.510119 0.588888 0.396253
0.212982 0.563947 0.441554
0.510119 -0.0915798 -0.390483
0.366673 -0.278486 -0.459048
-0.508596 -0.537 0.139416
0.445374 0.727557 0.0032684
-0.374986 0.233416 0.456318
0.510119 0.0447021 -0.0991147
0.510119 0.474749 -0.386361
0.180621 0.727557 -0.205096
-0.0136882 0.727557 -0.402191
0.510119 -0.725144 0.0272151
-0.508596 -0.446398 0.00482359
-0.277673 -0.231276 0.456318
0.510119 -0.31925 0.389605
-0.259013 -0.734076 -0.392912
0.510119 -0.463369 -0.0202835
-0.508596 0.426961 -0.412149
-0.508596 -0.539834 -0.00850462
0.126034 0.18405 0.456318
0.510119 -0.523191 -0.186303
-0.457008 -0.734076 0.0622946
-0.376527 -0.173257 0.456318
-0.18001 -0.0314553 0.456318
0.510119 -0.457692 -0.0724515
-0.300584 0.143808 -0.459048
0.510119 -0.20129 -0.25153
-0.508596 0.0546308 0.325355
-0.386208 0.335885 0.456318
0.463417 -0.132418 0.456318
0.510119 -0.352658 -0.393319
-0.31808 -0.734076 -0.341579
0.510119 0.357708 -0.103999
-0.233744 0.417908 -0.459048
-0.366729 0.631379 0.456318
-0.508596 0.158108 0.327403
0.0107659 0.656074 -0.459048
-0.324064 0.727557 0.0588514
-0.508596 0.684299 -0.243027
0.452458 0.727557 -0.321004
0.510119 -0.488903 0.207799
0.205391 -0.616746 -0.459048
-0.508596 0.392853 -0.214802
0.12945 0.468491 -0.459048
0.044881 0.727557 -0.439418
0.3909 -0.450878 0.456318
0.2855 0.727557 -0.164208
0.510119 -0.0511847 0.455411
-0.440672 0.682124 -0.459048
-0.301496 -0.644284 -0.459048
0.282201 -0.130883 0.456318
-0.508596 0.133754 0.126694
-0.508596 -0.133521 0.309541
0.482765 -0.370778 -0.459048
-0.508596 -0.103615 -0.0064139
0.510119 -0.111139 -0.19824
0.398603 -0.684251 0.456318
0.319749 -0.734076 -0.320232
-0.474879 -0.734076 0.00227495
-0.034736 0.559214 0.441554
0.510119 0.231327 0.160684
-0.116887 -0.734076 -0.355415
0.424979 -0.711236 -0.459048
0.169807 0.727557 0.408091
-0.508596 -0.377849 -0.0821639
-0.508596 -0.622704 -0.378885
0.510119 0.324796 -0.339413
-0.0347554 -0.730743 0.456318
0.43429 -0.520351 -0.459048
-0.508596 0.470645 -0.235637
0.0387534 -0.169202 -0.459048
0.510119 0.659897 0.122715
0.510119 -0.542858 -0.41493
-0.0571014 0.360474 -0.459048
-0.449456 0.727557 -0.229171
-0.241743 -0.161832 -0.459048
0.14203 -0.0144832 0.456318
-0.464501 -0.2682 -0.459048
0.398684 -0.734076 0.0321853
-0.508596 -0.567643 0.197735
0.0852111 0.541468 0.441554
0.336579 -0.734076 -0.0927174
-0.508596 0.16166 -0.044172
-0.499147 0.727557 0.00468291
-0.293095 -0.0621351 0.456318
-0.0408171 -0.180181 -0.459048
-0.376267 -0.580421 0.456318
-0.342615 -0.734076 0.355577
-0.423774 0.259578 0.456318
0.279247 -0.0376499 0.456318
0.510119 -0.530738 0.17393
0.510119 0.147168 0.328325
-0.508596 -0.107375 -0.458269
-0.508596 -0.71246 -0.168384
0.15117 0.727557 -0.418533
0.450585 -0.734076 0.0645056
-0.477601 -0.183982 -0.459048
0.510119 -0.308271 -0.215698
0.447216 0.371645 0.456318
0.00232546 0.727557 0.0704993
0.331559 0.122067 0.456318
-0.182703 -0.734076 0.0330546
0.510119 -0.122403 -0.456939
-0.44522 0.251106 -0.459048
0.352121 -0.734076 0.0965552
-0.508596 0.678578 -0.412879
-0.0704878 -0.0362063 -0.459048
-0.508596 0.198082 -0.29482
0.259652 0.727557 0.275285
-0.481305 -0.734076 -0.325112
0.431094 -0.734076 -0.280772
0.275895 0.727557 0.181499
0.510119 0.578641 -0.130363
-0.45263 0.727557 -0.323398
-0.508596 -0.599472 -0.181403
0.364092 0.727557 -0.29508
-0.508596 -0.330014 -0.274882
0.0565347 -0.734076 -0.157168
-0.508596 -0.417417 0.243724
0.448612 0.230087 -0.459048
0.371405 0.727557 0.341424
0.510119 0.365978 0.0537542
-0.381517 -0.734076 -0.401764
0.0858911 0.727557 -0.386882
-0.266921 0.335557 -0.459048
-0.508596 -0.534469 -0.0963012
0.196656 0.666274 -0.459048
-0.271046 0.727557 -0.2784
0.374839 -0.734076 0.352447
0.277254 -0.109509 -0.459048
-0.224102 0.530132 -0.459048
-0.508596 0.391795 -0.316452
-0.37736 -0.14319 -0.459048
-0.508596 0.220732 0.178696
-0.474346 0.414802 0.456318
0.491666 -0.350253 0.456318
0.0931956 0.727557 -0.160456
-0.12667 0.395937 0.456318
-0.442633 0.157016 0.456318
-0.508596 0.0543427 -0.418127
-0.280212 0.727557 -0.431324
-0.508596 0.205677 0.391828
-0.508596 -0.178061 0.349036
0.207412 -0.511218 0.456318
-0.508596 0.675538 0.0461965
-0.508596 -0.54978 -0.297998
-0.278987 -0.600304 0.456318
0.389023 -0.734076 -0.255336
-0.322904 0.25418 -0.459048
-0.508596 -0.181053 -0.184417
-0.508596 -0.287475 0.190007
0.329802 -0.2888 0.456318
0.510119 0.287363 -0.0336592
0.0268737 0.201194 0.456318
0.0583373 -0.380162 0.456318
0.510119 -0.716119 0.401495
-0.179882 0.727557 -0.131951
0.510119 0.423872 0.211148
0.189893 0.154557 -0.459048
0.510119 -0.0769321 0.410173
0.510119 -0.427791 -0.233586
-0.208119 -0.734076 0.283533
0.510119 -0.267742 -0.454279
-0.235476 0.0746678 -0.459048
-0.508596 0.626041 0.351233
-0.150756 -0.452798 0.456318
0.510119 -0.688588 0.361252
0.486133 -0.655693 -0.459048
0.450348 -0.734076 -0.184857
-0.508596 -0.0994071 -0.100842
0.279877 -0.668939 0.456318
0.03984 -0.290827 0.456318
0.15746 0.292815 -0.459048
0.223649 -0.734076 -0.242338
-0.0881362 -0.357693 -0.459048
-0.105 -0.279054 -0.459048
-0.265696 -0.559226 -0.459048
0.424361 -0.588051 0.456318
-0.0502277 -0.734076 -0.265527
-0.238619 -0.734076 0.205291
0.043775 -0.193709 0.456318
-0.508596 -0.161775 0.0891848
0.0373865 -0.602887 -0.459048
0.0488743 0.568431 -0.459048
-0.468881 0.594565 0.456318
0.139934 0.553572 -0.459048
-0.277886 0.598726 -0.459048
-0.226165 -0.734076 -0.294534
0.510119 -0.552935 -0.0818156
0.440229 -0.208951 -0.459048
-0.508596 -0.574728 -0.385388
-0.24287 0.727557 -0.0341288
0.215679 -0.401339 -0.459048
0.400718 -0.623625 -0.459048
0.470288 -0.427933 0.456318
-0.508596 0.254097 -0.14127
0.115521 0.0890195 0.456318
-0.508596 -0.232506 -0.27192
-0.0190591 -0.734076 0.0618716
-0.508596 -0.267343 0.455971
-0.0434123 0.021939 0.456318
-0.166122 0.727557 0.134147
0.183284 0.727557 0.220405
0.328682 0.229926 0.456318
0.395708 -0.734076 0.273818
0.378315 0.682037 -0.459048
0.231226 -0.734076 0.212266
-0.030218 -0.208018 0.456318
0.510119 0.137866 -0.155781
-0.508596 0.598352 0.409132
0.437796 0.71196 -0.459048
0.510119 -0.62118 -0.0721818
0.510119 -0.259402 0.265795
-0.508596 0.451573 0.321805
0.122889 0.648792 -0.459048
0.0669602 -0.734076 0.136181
0.14851 -0.734076 0.166225
-0.508596 0.244056 -0.329959
0.129573 0.727557 0.00988982
0.204671 -0.734076 -0.435945
-0.508596 -0.525413 -0.438695
-0.128825 0.60766 0.456318
-0.216713 -0.734076 -0.442694
-0.508596 0.0644684 0.207533
0.127753 0.727557 0.214511
0.109314 -0.356263 0.456318
0.138045 0.210949 -0.459048
0.510119 0.124108 0.0971131
-0.408689 0.494963 -0.459048
0.510119 0.595911 -0.406049
-0.326871 -0.734076 0.308625
0.510119 0.190288 -0.297968
0.312341 0.713593 0.456318
0.280851 0.727557 -0.105004
-0.508596 -0.30874 -0.446436
-0.109656 0.706532 0.456318
0.17667 -0.004829 -0.459048
0.38199 0.255853 -0.459048
-0.204674 0.699411 0.456318
0.510119 0.672373 0.168602
0.470006 -0.734076 0.427357
0.211033 -0.734076 0.412163
0.478487 0.727557 0.223152
0.510119 0.0409922 -0.353585
-0.020231 0.727557 -0.0222927
-0.113499 0.44761 -0.459048
0.38838 -0.34567 -0.459048
-0.508596 0.584476 0.17964
-0.479848 -0.119991 0.456318
0.510119 -0.0141727 -0.177577
0.47035 -0.280887 0.456318
0.510119 -0.0944272 0.0608665
-0.508596 -0.0731494 0.231145
-0.348817 -0.734076 -0.255378
0.510119 0.66054 -0.158831
-0.508596 0.0886344 0.00898077
0.290827 -0.464098 0.456318
0.193481 -0.161297 -0.459048
-0.491395 -0.313058 0.456318
-0.345032 0.51188 0.456318
-0.387463 -0.734076 -0.35411
-0.508596 -0.505023 0.0945237
-0.462059 -0.734076 -0.420945
-0.313054 0.360633 0.456318
0.116915 -0.681236 -0.459048
0.504538 0.727557 0.0519467
-0.0118875 0.727557 -0.207444
0.510119 -0.0667026 0.33676
0.329143 -0.0246486 -0.459048
0.510119 -0.456699 -0.449547
0.0536921 -0.734076 -0.245228
0.510119 0.261284 0.312011
0.468428 -0.734076 0.198882
-0.508596 -0.613935 0.228137
0.0417726 -0.734076 -0.396855
-0.506015 0.0516097 0.456318
0.207569 0.0922308 0.456318
0.311372 0.424053 -0.459048
0.355422 -0.549561 -0.459048
-0.508596 0.152708 0.180114
-0.279075 0.727557 0.144606
0.431948 0.727557 -0.19532
-0.191407 -0.192979 0.456318
-0.118212 -0.134355 0.456318
0.434596 0.111607 0.456318
0.510119 -0.708118 -0.334307
