ply
format ascii 1.0
comment Created by Open3D
element vertex 1678
property double x
property double y
property double z
end_header
-0.142698 0.662003 0.515856
0.491454 -0.0427159 0.480918
0.491454 -0.180834 -0.275612
0.294273 0.412255 -0.517237
-0.434528 0.205379 -0.517237
0.491454 -0.4982 -0.216855
0.377108 -0.613398 0.515856
0.212956 0.708552 0.511484
0.385835 0.708552 -0.162118
-0.0765561 0.708552 -0.207226
0.491454 0.254092 -0.483699
0.0283462 -0.530415 -0.517237
0.491454 0.139855 -0.234037
-0.305948 -0.714067 -0.0370309
-0.49083 0.258583 0.200483
0.491454 -0.596269 0.0502242
-0.0677478 0.390489 0.515856
0.0704578 0.708552 0.17873
0.491454 0.598147 0.403766
-0.29006 -0.709255 0.515856
0.491454 0.606347 0.155632
-0.49083 -0.112319 -0.345299
-0.239497 0.664172 -0.517237
0.491454 0.22179 0.211367
0.491454 -0.446327 0.425833
-0.366441 0.613439 0.515856
-0.49083 -0.639669 0.409088
0.491454 0.358149 0.22115
0.491454 -0.63787 0.264937
0.491454 0.231116 0.454481
0.179682 0.708552 -0.0757147
-0.237602 0.353647 -0.517237
0.491454 0.256651 -0.0187123
0.159678 -0.00480804 0.515856
0.338518 -0.714067 0.401469
-0.35934 -0.657697 -0.517237
-0.453553 0.202748 0.515856
-0.49083 0.298499 -0.0767237
0.294035 -0.594604 -0.517237
-0.49083 0.101094 -0.012141
-0.309651 0.708552 -0.13101
-0.49083 0.0456538 0.225799
-0.378681 0.708552 0.0379575
0.316232 0.708552 0.257226
0.491454 -0.0937187 -0.0873121
0.0870409 -0.714067 -0.284165
-0.49083 -0.319201 0.470148
-0.278897 -0.714067 -0.179617
-0.412713 -0.0486335 -0.517237
-0.380638 0.708552 0.424193
0.491454 -0.378839 -0.403155
-0.49083 0.366085 -0.345018
-0.49083 -0.430193 0.248453
-0.238571 -0.0392269 0.515856
0.13716 -0.714067 0.275851
-0.49083 0.634119 0.419744
0.171443 0.545075 -0.517237
-0.468702 -0.702803 -0.390265
-0.49083 0.157432 -0.427227
-0.464884 0.38296 -0.517237
0.414737 -0.565563 -0.517237
0.0480342 0.110174 -0.517237
-0.428009 0.708552 -0.406451
0.491454 -0.606778 0.404002
0.0876974 0.708552 -0.438576
-0.00781513 -0.0547338 -0.517237
0.245081 -0.0461762 -0.517237
0.469028 0.707035 -0.517237
-0.0725873 0.0107532 0.515856
0.491454 -0.24315 0.303526
-0.0467517 0.128918 0.515856
-0.399488 -0.0627918 0.515856
-0.49083 -0.33633 0.0408896
0.373343 -0.490482 0.515856
0.214119 -0.493904 -0.517237
-0.208015 0.235978 0.515856
0.0244979 -0.700921 0.515856
-0.370262 0.303657 0.515856
-0.355152 -0.714067 0.19036
0.337817 0.708552 0.509862
0.491454 -0.239114 0.509036
-0.373616 0.110695 -0.517237
0.425397 0.410597 -0.517237
0.432091 -0.440805 -0.517237
0.179165 0.211012 0.515856
0.491454 0.0379858 0.343087
-0.382852 -0.597906 0.515856
0.11314 0.654596 0.515856
0.210396 -0.636507 0.515856
-0.487735 -0.466919 -0.517237
-0.49083 -0.23795 -0.490298
-0.260607 -0.104181 -0.517237
0.491454 -0.491495 -0.335023
0.491454 0.622256 0.269214
0.360891 -0.714067 -0.287536
-0.288242 0.708552 0.106902
-0.011233 0.347991 -0.517237
0.491454 -0.636142 -0.433577
-0.49083 0.395283 0.136676
-0.116751 -0.211175 -0.517237
0.0492969 -0.321977 -0.517237
0.491454 -0.288308 -0.0729356
-0.112668 -0.417736 0.515856
-0.49083 0.381116 0.0220646
0.491454 0.401246 0.0437596
0.0163362 0.708552 0.392897
0.395811 0.595791 -0.517237
-0.119921 -0.714067 -0.36459
0.125525 -0.714067 -0.0811822
-0.49083 -0.456078 0.0423557
0.106788 0.708552 0.308673
-0.49083 -0.625947 0.240871
0.491454 -0.484933 -5.402e-05
-0.49083 0.438111 -0.18608
0.234994 -0.714067 0.22491
-0.49083 0.490526 0.232892
-0.200219 -0.714067 0.457744
0.37168 -0.0808468 -0.517237
-0.449788 -0.714067 -0.265401
-0.379202 -0.249527 0.515856
-0.49083 0.205608 -0.212787
-0.49083 -0.101852 0.00666824
-0.49083 0.246047 -0.334756
0.0710413 -0.0714057 0.515856
0.491454 -0.0623406 -0.293215
-0.10492 0.708552 0.277844
-0.3928 -0.714067 0.068062
0.240663 -0.714067 -0.254035
-0.0301716 -0.275439 0.515856
0.223173 0.708552 0.357441
0.0857594 -0.43651 -0.517237
-0.49083 0.18058 0.0783414
-0.192771 -0.714067 0.134729
0.491454 0.487253 -0.0945348
0.157624 -0.712941 -0.517237
0.491454 -0.150204 0.0968407
-0.0249303 -0.714067 0.260409
0.182629 -0.208343 0.515856
-0.468564 0.708552 0.1847
-0.371684 -0.714067 -0.427415
-0.49083 0.334216 0.349445
0.120742 0.0989214 0.515856
0.491454 0.609778 -0.279372
0.491454 0.160711 -0.368063
0.291584 -0.714067 -0.0850571
-0.49083 0.447227 -0.416208
-0.122292 -0.484467 -0.517237
-0.485323 -0.430991 0.515856
-0.49083 -0.571266 0.0415333
-0.176054 -0.508393 0.515856
-0.15567 -0.000243933 -0.517237
-0.49083 -0.172596 -0.250802
0.348781 0.336242 0.515856
-0.161461 0.202316 -0.517237
-0.49083 0.587788 -0.463443
-0.49083 -0.390038 -0.180786
0.0635085 0.708552 0.0557627
-0.49083 -0.320368 0.235868
0.0245186 -0.482549 0.515856
0.11074 -0.714067 0.0589249
0.491454 0.0417393 0.106772
0.0821282 0.491244 -0.517237
-0.0469373 -0.714067 0.42472
-0.0568741 -0.714067 -0.09623
0.0269068 0.452265 0.515856
-0.49083 0.595497 0.0571627
-0.0197501 0.604755 -0.517237
-0.130336 0.708552 -0.292669
0.37923 0.708552 0.0743055
-0.0705368 -0.714067 -0.276776
-0.227202 -0.324119 -0.517237
-0.265492 0.561864 -0.517237
-0.214675 0.708552 -0.0999895
0.491454 0.497389 0.390997
-0.15721 -0.714067 -0.163965
-0.00866714 0.708552 -0.115506
0.163038 0.708552 -0.234541
0.402519 0.708552 -0.396925
-0.49083 -0.361708 -0.417698
0.166364 0.349036 0.515856
-0.49083 0.507918 -0.0135696
-0.437998 0.708552 -0.294327
0.491454 -0.651934 -0.0310905
-0.187563 -0.168688 0.515856
0.276093 0.0969874 -0.517237
-0.106834 0.398081 -0.517237
-0.161407 0.429056 0.515856
-0.396635 -0.416399 -0.517237
-0.49083 -0.17121 0.267853
-0.219397 -0.714067 0.00836534
-0.49083 0.685907 -0.0164386
0.395389 0.708552 -0.0329821
0.491454 -0.0945145 -0.19983
-0.49083 -0.237398 -0.0841686
-0.235041 0.708552 -0.307696
-0.00559478 0.296066 0.515856
-0.49083 -0.606428 -0.0885718
0.491454 -0.514494 0.231316
0.102942 0.028127 -0.517237
-0.49083 0.00536173 0.0337804
-0.347918 -0.714067 0.286845
-0.0459342 0.708552 0.00779964
0.469327 -0.693726 0.362797
0.475412 0.424349 0.515856
-0.471252 0.441383 0.515856
0.491454 0.608049 -0.0941439
-0.49083 -0.606 -0.516938
-0.49083 -0.0502082 -0.14801
0.374856 0.492149 -0.517237
0.336808 -0.714067 -0.454628
0.491454 0.194511 0.11769
-0.25057 0.109698 0.515856
0.484669 -0.627643 0.515856
0.267707 0.708552 -0.400358
0.333855 -0.105616 0.515856
-0.0497046 0.606123 0.515856
0.354331 -0.385372 -0.517237
-0.176049 0.329179 0.515856
0.0920443 0.708552 -0.314223
-0.49083 -0.170174 0.111615
0.470308 0.161683 0.515856
-0.386128 0.708552 -0.186862
0.491454 0.0274231 -0.437202
0.278217 0.180786 0.515856
0.398396 -0.714067 0.203266
0.303195 -0.714067 0.010015
0.491454 -0.198909 -0.441148
-0.49083 0.14796 0.379956
0.491454 0.406535 0.301847
0.491454 -0.295713 0.184471
-0.252248 -0.714067 -0.329672
0.491454 0.657174 -0.177546
-0.0185694 -0.614967 0.515856
0.0814549 0.361008 -0.517237
0.491454 -0.426519 0.332545
0.306746 0.708552 -0.112503
-0.49083 -0.546547 0.402648
0.491454 0.343927 -0.332985
-0.0830375 -0.179393 0.515856
-0.34503 0.708552 -0.516541
0.255223 0.489894 0.515856
-0.49083 0.137233 0.201371
0.423337 0.0856359 -0.517237
0.22516 -0.714067 0.452698
0.491454 -0.292876 -0.285279
0.491406 -0.425288 0.515856
-0.49083 -0.0248948 -0.473971
-0.289397 -0.485253 -0.517237
0.18305 -0.519298 0.515856
-0.396276 0.130379 0.515856
0.423608 0.708552 0.422004
-0.49083 -0.00798603 0.51407
-0.0348582 -0.100156 0.515856
0.491454 -0.440735 -0.144242
0.454256 -0.714067 -0.283492
-0.393314 -0.714067 0.398141
0.409854 0.708552 0.279211
0.421334 0.0575602 0.515856
-0.49083 -0.638871 0.102927
0.491454 -0.131132 0.246023
-0.49083 0.624259 -0.159279
-0.415651 0.546776 -0.517237
-0.468702 -0.69451 -0.0936809
0.132635 -0.714067 0.403356
0.491454 0.102076 -0.15146
0.491454 0.614407 -0.49751
0.395906 0.249856 0.515856
-0.49083 0.541106 0.419406
0.247083 0.708552 -0.28212
0.393217 -0.712325 0.515856
0.376046 -0.714067 0.0727742
-0.49083 0.355514 -0.150945
-0.206188 -0.691649 -0.517237
0.233282 -0.291287 0.515856
0.235932 0.343614 -0.517237
0.0649825 -0.146542 -0.517237
-0.367613 0.708552 0.283609
0.491454 -0.103335 0.415116
0.259924 -0.0208165 0.515856
-0.207651 -0.714067 0.319905
0.469327 -0.710599 0.0443332
0.384463 -0.714067 -0.10174
0.278518 0.652426 -0.517237
-0.00244838 -0.629387 -0.517237
-0.49083 -0.646765 0.504396
-0.276267 0.708552 0.253542
0.258625 0.395804 0.515856
0.491454 0.340832 -0.499088
-0.392098 -0.152798 0.515856
0.203598 0.708552 0.144702
-0.49083 -0.463101 -0.130192
0.223686 -0.714067 -0.431988
0.463781 0.604729 0.515856
-0.49083 0.234149 -0.0168769
-0.0917145 0.708552 0.175617
0.491454 0.540547 0.0943932
-0.31511 -0.41101 0.515856
0.491454 0.662666 -0.0147849
0.245263 -0.714067 0.0957152
-0.0964504 0.543377 -0.517237
-0.236547 0.266448 -0.517237
0.189349 -0.714067 -0.330713
-0.49083 0.639896 0.281633
-0.49083 -0.107223 0.209136
0.491454 0.449902 0.225618
0.399113 -0.275873 -0.517237
0.491454 -0.669181 -0.515299
-0.49083 -0.336837 -0.334619
-0.49083 -0.523416 -0.328366
0.491454 0.47888 -0.439072
0.491454 -0.590716 -0.359977
0.141212 -0.121964 0.515856
0.034874 -0.714067 -0.12176
0.25472 -0.399645 -0.517237
0.491454 -0.622533 -0.170892
-0.18326 0.576423 0.515856
0.119607 0.273359 0.515856
-0.49083 -0.103171 -0.0802255
-0.0476995 0.270104 -0.517237
0.111382 0.195468 -0.517237
0.491454 -0.586672 0.142894
0.410037 0.494385 0.515856
0.491454 0.286304 -0.102041
0.225924 -0.239405 -0.517237
-0.49083 -0.433134 -0.262128
0.491454 -0.267218 0.0984558
-0.394127 0.529494 0.515856
-0.49083 0.0534156 -0.287333
-0.428973 -0.29067 -0.517237
-0.214498 0.708552 0.426921
-0.200494 -0.31907 0.515856
0.491454 -0.104727 -0.494619
0.311284 -0.714067 0.26308
0.344332 -0.179003 -0.517237
-0.49083 0.495702 -0.118547
0.491454 0.287643 -0.40538
0.491454 -0.24091 -0.515261
-0.125092 -0.634078 0.515856
0.491454 -0.411882 0.135116
-0.367908 -0.714067 -0.221107
-0.49083 0.625288 -0.250249
0.234735 0.47276 -0.517237
-0.49083 0.0802839 -0.094372
0.491454 -0.348192 0.478836
0.474327 0.708552 -0.350466
-0.49083 0.432672 0.314229
0.491454 0.398213 -0.17946
-0.49083 0.531887 -0.400062
-0.133814 0.708552 -0.497775
0.373783 0.708552 -0.25577
-0.200046 0.708552 0.28929
0.216388 0.169088 -0.517237
-0.49083 -0.273559 -0.160069
0.296968 0.280663 -0.517237
-0.34558 -0.0987093 -0.517237
-0.49083 -0.458222 0.327743
0.144548 0.569085 0.515856
-0.49083 -0.578521 -0.240581
0.491454 0.706405 0.249322
0.491454 -0.0100652 0.267496
0.028677 0.642689 0.515856
-0.49083 0.324675 0.432971
-0.259854 -0.519186 0.515856
0.417085 0.237578 -0.517237
-0.0338215 -0.321166 -0.517237
0.0549203 -0.714067 0.435062
-0.109994 0.187582 0.515856
-0.49083 -0.618753 0.327175
-0.49025 0.288071 -0.517237
-0.144396 0.708552 -0.156025
0.491454 0.136826 -0.0371938
0.0397086 0.69918 -0.517237
0.175104 -0.133297 -0.517237
-0.49083 0.266653 -0.153324
-0.49083 -0.314168 0.153252
-0.49083 -0.433421 -0.0430759
-0.407912 0.0338096 -0.517237
0.491454 0.30944 0.428379
-0.49083 0.261122 0.311169
0.0814994 -0.380123 0.515856
0.491454 0.527817 -0.272933
0.0875345 -0.645209 -0.517237
0.491454 -0.528109 0.431963
-0.41382 0.373795 0.515856
0.491454 0.479695 -0.188331
-0.03611 -0.714067 0.343477
-0.49083 -0.246841 0.306909
-0.0529389 -0.714067 0.141762
-0.284573 0.708552 -0.208737
0.25457 0.708552 0.0697216
0.491454 -0.148616 0.0127024
-0.49083 0.708354 -0.108059
-0.119069 0.111189 -0.517237
0.0549105 -0.714067 -0.42566
-0.206723 0.708552 0.121037
0.491454 -0.251525 -0.210597
0.327027 0.537962 0.515856
-0.391333 -0.714067 -0.0515495
0.491454 0.0534176 -0.264117
-0.290822 0.288395 0.515856
0.016896 -0.714067 0.0602696
-0.353494 0.708552 0.51491
0.289362 -0.463814 0.515856
-0.490218 -0.118226 0.515856
0.491454 -0.187264 -0.0672401
0.491454 0.216818 -0.209986
-0.0503582 -0.132901 -0.517237
-0.49083 -0.239264 0.442421
0.184577 0.632398 -0.517237
-0.139818 -0.399956 -0.517237
0.149267 0.708552 -0.155486
-0.396807 0.708552 0.116097
-0.0484142 0.708552 0.344942
-0.385724 0.432029 -0.517237
-0.49083 -0.438254 -0.440733
-0.49083 -0.236047 -0.29931
0.491454 0.482148 0.0301571
0.307315 0.0984752 0.515856
0.491454 0.0552914 0.0143501
-0.279328 -0.391036 -0.517237
-0.32072 -0.0518905 0.515856
0.204427 0.0360112 -0.517237
0.0805378 -0.714067 -0.191646
-0.0102892 0.522269 0.515856
-0.42179 -0.714067 0.248066
0.146028 -0.297517 -0.517237
0.0682711 0.708552 0.473419
-0.409097 0.0522685 0.515856
-0.158759 -0.572185 -0.517237
0.239129 -0.714067 -0.144188
-0.278072 0.111917 -0.517237
-0.177136 -0.714067 -0.435066
-0.351677 -0.714067 0.46472
-0.0978503 -0.3258 0.515856
0.165804 0.708552 -0.445794
-0.229537 -0.714067 -0.0818179
-0.315894 -0.573759 -0.517237
0.41701 -0.262194 0.515856
-0.49083 -0.105409 -0.21079
0.491454 -0.0190542 -0.0612267
-0.0877763 0.708552 0.450064
0.226311 -0.644837 -0.517237
0.0522834 -0.714067 0.240639
0.155674 0.336204 -0.517237
0.491454 -0.592819 -0.499616
0.105477 -0.218589 0.515856
-0.245763 0.641082 0.515856
0.00690492 -0.714067 -0.283566
0.491454 -0.295371 -0.444682
-0.337692 0.708552 -0.352155
0.491454 0.000441226 0.416615
-0.49083 0.0981099 -0.373439
0.491454 -0.417221 -0.473583
0.491454 0.332989 -0.00623921
0.491454 0.632291 0.0679169
0.406857 -0.0486533 0.515856
-0.302531 0.472683 0.515856
0.121841 -0.50468 -0.517237
-0.14242 -0.714067 0.0129758
-0.49083 0.0326378 0.426223
-0.257259 0.433802 -0.517237
-0.49083 0.359931 -0.446526
0.0142028 0.03417 -0.517237
-0.276697 -0.714067 -0.256475
-0.49083 -0.659976 -0.459912
0.491454 0.679795 0.443789
-2.16985e-05 0.708552 -0.257569
0.491454 -0.160074 0.31711
-0.49083 -0.513033 0.208297
0.491454 0.386929 0.147424
0.107782 -0.645545 0.515856
-0.148801 -0.714067 0.270781
0.491454 -0.0708094 0.0924098
-0.0422449 -0.714067 -0.0211024
0.348745 -0.415554 0.515856
-0.158481 0.0196484 0.515856
-0.0467981 -0.496737 -0.517237
0.29222 0.627049 0.515856
0.469327 -0.713367 0.263507
0.0506623 -0.310224 0.515856
0.406047 0.672785 0.515856
-0.0834709 0.708552 -0.389432
0.489195 -0.496291 -0.517237
0.491454 0.121908 0.140874
-0.132008 -0.647725 -0.517237
-0.468702 -0.714036 0.408206
0.362035 -0.714067 -0.370937
-0.49083 -0.0275121 0.364617
0.490086 -0.671518 -0.342353
-0.00656032 -0.0268723 0.515856
0.491454 0.157879 0.264873
0.491454 -0.345055 -0.00800838
-0.49083 -0.544361 -0.147598
0.401527 -0.714067 -0.206139
-0.49083 -0.0366235 -0.324309
-0.0439637 -0.450521 0.515856
-0.333797 0.36985 0.515856
-0.237834 0.708552 0.0485745
0.491454 -0.165423 0.492683
-0.192055 0.579119 -0.517237
-0.478923 0.708552 0.421986
0.491454 -0.454219 -0.402498
-0.49083 0.418479 -0.27286
-0.427986 -0.493602 0.515856
-0.402031 0.280452 -0.517237
-0.332011 -0.335691 0.515856
0.491454 -0.186662 -0.367094
-0.0258652 -0.714067 -0.466309
-0.49083 -0.185474 -0.424922
0.491454 -0.553296 -0.292699
-0.49083 0.707979 -0.34736
-0.304657 -0.714067 -0.389467
-0.214827 -0.508704 -0.517237
0.320278 -0.318295 0.515856
-0.192145 0.502689 0.515856
-0.49083 -0.114362 0.368629
0.412538 -0.714067 -0.447063
0.258334 0.708552 0.453131
-0.229925 0.0383115 0.515856
0.491454 -0.600117 0.330497
-0.00294596 0.708552 0.168818
0.491454 0.25052 0.0546521
0.491454 -0.446712 0.202596
-0.429458 0.629568 -0.517237
0.283504 -0.628214 0.515856
-0.279606 -0.654442 -0.517237
0.00692862 0.536227 -0.517237
-0.49083 -0.026507 0.243517
0.491454 -0.333793 0.31716
-0.229895 -0.0315361 -0.517237
0.395175 0.708552 0.354422
0.491454 0.53467 0.169773
0.226232 -0.565935 -0.517237
0.351558 -0.641864 -0.517237
-0.421324 -0.714067 -0.332564
0.491454 0.41895 -0.329748
0.491454 0.572299 -0.420534
0.491454 0.119715 -0.307898
0.0129568 0.708552 -0.38873
0.477877 0.184423 -0.517237
-0.49083 0.000178614 0.133441
-0.291053 0.708552 0.420885
-0.49083 -0.280309 -0.0256843
0.128455 0.708552 -0.0155965
0.491454 -0.577439 -0.0242962
-0.132833 -0.714067 0.431487
0.233181 -0.315459 -0.517237
0.111535 0.690775 -0.517237
-0.49083 0.199386 0.14811
-0.49083 0.220875 -0.469491
-0.306464 -0.178289 -0.517237
0.229724 0.708552 -0.0103156
0.0474487 -0.248484 -0.517237
-0.461499 -0.714067 -0.162771
-0.439463 -0.137797 -0.517237
-0.451993 0.620981 0.515856
0.491454 0.301148 -0.261654
-0.259142 -0.714067 0.170385
-0.49083 0.57151 -0.29812
0.491454 -0.0444712 -0.438258
0.491454 -0.448578 0.0731336
0.491454 -0.48659 -0.0718891
0.491454 -0.0277767 -0.356153
0.0507561 0.114825 0.515856
-0.301263 -0.624663 0.515856
-0.0347111 0.11346 -0.517237
0.491454 0.0257921 0.176642
-0.49083 0.305206 -0.00542472
0.491454 -0.342259 -0.341751
0.400152 0.413162 0.515856
0.0703265 0.708552 -0.134852
0.323607 0.235803 0.515856
-0.49083 -0.254728 0.0716191
-0.49083 -0.655757 -0.265096
-0.11466 0.708552 0.106195
-0.49083 0.468541 0.163685
-0.49083 0.161984 -0.513848
0.491454 0.102169 0.395095
-0.467815 0.708552 0.265389
-0.49083 0.150853 0.466784
-0.227843 -0.109498 0.515856
-0.49083 -0.372456 0.292099
-0.232422 0.186959 -0.517237
0.351097 0.708552 0.186776
-0.284442 -0.210513 0.515856
0.466768 -0.714067 -0.0540394
0.491454 0.696767 0.153746
-0.422772 0.699791 -0.517237
-0.49083 0.574438 0.138515
-0.233417 0.708552 -0.462909
-0.168672 -0.689872 0.515856
0.107837 0.503103 0.515856
-0.319703 0.281032 -0.517237
0.174702 -0.353842 0.515856
-0.367656 0.708552 -0.442578
0.109076 0.418431 0.515856
-0.345761 0.708552 -0.0702858
-0.463508 -0.273619 0.515856
0.474449 0.708552 -0.43532
0.491454 0.375883 0.466785
0.133666 0.708552 0.148181
0.469327 -0.689144 -0.219833
0.410101 0.160271 -0.517237
-0.49083 0.659164 -0.415481
0.153459 -0.587233 0.515856
-0.402259 -0.602934 -0.517237
-0.49083 -0.169731 0.442898
-0.318736 -0.714067 -0.105267
-0.49083 0.452238 0.0277324
0.422288 -0.428766 0.515856
-0.0499731 0.222645 0.515856
-0.49083 0.487842 -0.247703
0.491454 -0.519824 -0.151247
-0.463707 -0.542515 -0.517237
-0.49083 0.330004 0.15914
0.144352 -0.714067 -0.00687105
0.491454 -0.276609 0.434549
-0.260365 0.708552 0.171665
-0.26279 -0.350941 0.515856
0.491454 -0.573919 -0.226963
0.213115 -0.411801 0.515856
0.0426171 0.197923 -0.517237
-0.078421 0.708552 -0.136564
0.491454 0.584456 -0.349759
-0.49083 -0.39072 0.452239
-0.204176 -0.14341 -0.517237
0.417631 -0.543018 0.515856
0.491454 0.414287 -0.498769
0.491454 -0.64794 -0.104974
0.275805 0.708552 0.313386
0.491454 0.208285 -0.417503
0.491454 -0.393433 -0.193868
0.108967 -0.714067 -0.46898
0.284794 0.708552 -0.466662
-0.49083 0.177987 -0.351775
-0.176076 0.170277 0.515856
0.326237 0.708552 -0.195359
-0.281275 -0.282516 -0.517237
-0.49083 -0.638423 -0.386053
0.491454 0.039671 0.514866
-0.103068 -0.714067 -0.205303
-0.49083 0.561382 0.250734
-0.456839 -0.714067 0.0911146
0.491454 -0.0269592 -0.131566
-0.180293 0.708552 -0.0136328
-0.202142 -0.246619 0.515856
-0.178685 -0.714067 -0.330525
-0.206787 -0.714067 0.390152
-0.49083 -0.467968 0.137124
-0.394375 0.240303 0.515856
-0.49083 0.6172 0.354156
-0.1934 0.411322 -0.517237
0.190526 -0.714067 0.0471844
0.406066 -0.714067 0.401092
0.180261 0.648872 0.515856
-0.381409 -0.665157 0.515856
0.491454 0.171154 0.424026
-0.352609 -0.258915 -0.517237
0.491454 -0.25223 0.371971
-0.49083 0.264557 0.476196
0.41842 0.0114512 -0.517237
0.120445 0.708552 0.223245
-0.256047 0.18267 0.515856
-0.333206 -0.714067 -0.492514
0.472211 0.264228 0.515856
-0.49083 0.0611094 -0.445983
0.491454 0.275172 0.171417
0.491454 0.211703 0.364388
-0.0704173 -0.679188 -0.517237
-0.49083 -0.0700028 -0.396758
-0.49083 0.485959 0.369832
-0.49083 0.638717 0.121223
0.491454 -0.595418 0.208873
0.280866 -0.527999 -0.517237
-0.0531709 0.455333 0.515856
0.491454 -0.137976 0.169489
-0.00586134 0.366417 0.515856
-0.49083 0.0973063 0.267517
0.271501 0.708552 0.196888
0.399766 -0.501022 -0.517237
0.491454 0.0576599 -0.496144
0.152606 -0.714067 -0.274767
0.343964 0.105842 -0.517237
-0.187428 0.708552 0.501207
-0.377153 -0.438701 0.515856
0.491454 -0.567813 0.270346
0.0898348 -0.473011 0.515856
0.422941 0.708552 -0.107738
0.16784 -0.0187116 -0.517237
0.491454 -0.415002 0.000509706
-0.0970556 0.473145 -0.517237
-0.0976134 -0.0427514 -0.517237
0.229719 0.575564 -0.517237
-0.49083 -0.20925 -0.195637
-0.487663 -0.0776007 -0.517237
0.351469 0.238875 -0.517237
-0.383961 0.708552 0.358727
0.0983884 -0.714067 0.194053
0.278374 0.190946 -0.517237
-0.190359 -0.714067 0.200209
-0.0769155 -0.381686 -0.517237
0.290717 -0.229852 -0.517237
0.265624 -0.714067 0.401229
0.145114 0.708552 0.497172
0.100579 -0.372769 -0.517237
-0.49083 0.5751 -0.00843093
0.491454 -0.298428 0.262155
-0.426135 -0.714067 -0.468066
-0.49083 -0.595114 -0.0241945
-0.49083 -0.177725 -0.0401151
0.248519 0.708552 -0.0728892
-0.49083 0.169088 -0.0224994
-0.373924 0.181105 -0.517237
0.156141 0.477972 -0.517237
-0.0533792 0.675381 -0.517237
0.289053 -0.173816 0.515856
0.342544 0.64192 -0.517237
0.412221 0.6757 -0.517237
0.413139 -0.714067 0.140173
-0.327264 0.542462 -0.517237
0.0607343 0.708552 0.256638
0.311729 -0.714067 -0.2439
-0.49083 -0.498097 0.448654
0.491454 0.559843 0.229217
0.429586 0.708552 0.125982
-0.113424 -0.48224 0.515856
-0.49083 0.141425 -0.218562
0.491454 -0.468469 -0.274893
0.213057 -0.710981 0.515856
-0.22489 -0.714067 -0.387865
-0.314523 0.138679 0.515856
0.331775 -0.567976 0.515856
-0.49083 -0.305174 -0.478454
-0.167668 -0.714067 0.0719133
0.491454 -0.232821 -0.31781
0.342241 0.708552 -0.418317
0.341976 -0.714067 0.322216
0.491454 0.459488 0.465011
-0.49083 0.3049 -0.309999
0.491454 -0.131383 -0.315917
-0.280355 -0.714067 0.300926
-0.49083 -0.000876767 -0.188323
0.0543655 0.274608 0.515856
-0.178665 0.708552 -0.339969
0.441245 -0.627697 -0.517237
0.491454 -0.451519 0.274064
0.491454 0.0928982 -0.419799
0.194772 0.512614 0.515856
-0.49083 0.259286 -0.265821
0.240332 -0.714067 0.161664
-0.334581 -0.429719 -0.517237
0.491454 0.355159 -0.13283
-0.331072 0.536095 0.515856
-0.0061131 -0.538016 0.515856
-0.173262 -0.239705 -0.517237
0.0641571 -0.582561 -0.517237
-0.228983 0.45129 0.515856
-0.49083 -0.399179 0.0698272
-0.220762 0.708552 -0.387612
-0.0856715 0.707055 0.515856
-0.49083 0.310306 -0.376925
-0.0695584 0.708552 -0.27568
0.0735401 0.557861 -0.517237
0.0344989 0.402941 -0.517237
0.134519 0.253986 -0.517237
0.491454 0.560182 0.353593
-0.0125283 0.708552 0.448802
0.0374982 0.708552 0.120648
0.491454 0.198249 -0.050117
0.491454 0.339627 0.344982
-0.352832 -0.714067 0.11642
0.491454 0.225786 0.292307
0.491454 -0.428494 -0.337614
0.164031 0.708552 0.334302
0.491454 0.0986203 0.285409
0.313865 -0.0566363 -0.517237
0.491454 0.539455 0.444644
0.425916 -0.37853 -0.517237
0.0397659 0.708552 0.331199
-0.49083 0.0311865 -0.133135
-0.49083 0.265133 0.138311
-0.49083 -0.265018 0.38548
0.491454 -0.478241 0.482808
0.370901 -0.209395 0.515856
-0.49083 -0.0694311 0.0656185
0.212332 -0.714067 -0.0880337
-0.311592 0.403536 -0.517237
0.0274538 -0.252108 0.515856
-0.49083 -0.512951 0.0943143
0.491454 0.165593 0.185028
0.491454 0.634069 0.353209
-0.49083 -0.611211 0.165468
0.182393 -0.440641 -0.517237
-0.49083 0.200312 -0.284921
0.06192 -0.0527425 -0.517237
0.303281 0.708552 -0.256243
0.290638 -0.714067 0.197675
0.0609436 -0.714067 -0.340253
0.491454 -0.193006 0.249426
0.432557 0.345757 -0.517237
-0.168481 -0.59007 0.515856
-0.436298 0.708552 0.0156711
-0.276745 -0.714067 0.439054
-0.195546 0.707559 -0.517237
0.491454 0.432826 -0.12832
-0.0688515 -0.250138 -0.517237
-0.149439 0.708552 0.32924
0.204642 0.708552 0.422839
-0.49083 -0.490465 -0.407973
0.335781 -0.714067 0.46696
-0.49083 -0.394443 0.00456438
-0.346797 0.0407086 -0.517237
-0.0272217 -0.205138 0.515856
-0.49083 -0.372409 -0.271446
0.469327 -0.677656 0.209312
-0.49083 0.387134 0.494693
0.491454 -0.363214 -0.113846
0.469327 -0.697076 -0.427324
-0.49083 -0.402382 0.36761
-0.49083 0.654603 -0.0786933
0.173649 0.150039 0.515856
0.380851 0.708552 0.466477
0.135254 -0.0611727 0.515856
-0.49083 0.0992729 0.0489102
-0.385928 0.708552 -0.0226495
-0.0933642 0.330736 0.515856
0.491454 0.35612 -0.223545
0.491454 0.453149 -0.023381
-0.175111 -0.0580757 -0.517237
-0.468702 -0.683762 0.212358
-0.405608 -0.714067 0.00751234
0.461685 0.708552 -0.190355
-0.081212 0.341129 -0.517237
-0.49083 0.482642 0.439
0.491454 -0.284396 -0.00876462
0.491454 -0.134404 -0.154189
0.365237 0.417758 -0.517237
0.169993 0.708552 -0.294667
-0.120019 -0.0312044 0.515856
0.491454 -0.529202 0.0757863
-0.49083 -0.406056 -0.110044
0.417123 0.708552 0.0271628
-0.49083 0.360591 -0.0672213
-0.49083 0.427128 0.0852581
0.208559 0.708552 -0.143578
0.491454 -0.0823929 -0.027954
0.00266661 0.708552 -0.0505139
0.197593 0.276974 0.515856
-0.49083 0.352257 0.075114
-0.49083 0.424341 -0.47209
-0.404637 0.708552 0.235934
0.491454 0.440043 -0.392867
-0.49083 -0.436115 0.1884
0.491454 0.547772 -0.0915958
-0.49083 0.0142481 0.308931
-0.362307 -0.714067 -0.367882
-0.116711 0.243224 -0.517237
0.117526 -0.714067 -0.142805
-0.15225 0.0609633 -0.517237
0.454224 0.708552 -0.0470121
-0.429467 0.289104 0.515856
0.40309 0.708552 -0.336848
-0.49083 -0.256052 0.238587
-0.49083 0.117708 0.32395
-0.49083 0.388212 -0.219408
-0.49083 0.322211 0.273688
0.308594 -0.124789 -0.517237
-0.311042 0.708552 0.029313
-0.191169 0.305535 -0.517237
0.491454 -0.16102 -0.515055
-0.361891 -0.714067 0.345073
-0.240145 -0.676218 0.515856
0.212315 -0.576351 0.515856
0.341084 -0.714067 -0.514297
0.491454 -0.337044 -0.244947
-0.49083 0.225079 -0.390757
-0.49083 -0.35996 0.513868
0.239356 0.708552 -0.347741
0.491454 -0.102136 0.474932
-0.49083 0.682378 -0.268097
0.057892 -0.714067 0.103639
-0.0538195 0.0673291 0.515856
0.491454 -0.335881 0.126771
-0.295493 0.643827 -0.517237
-0.223802 0.519352 -0.517237
-0.49083 -0.196547 -0.343801
-0.108551 0.597366 0.515856
0.491454 0.272732 0.242092
0.491454 -0.259891 -0.125177
-0.0606207 -0.714067 -0.155676
0.295964 -0.714067 -0.304297
0.491454 -0.179291 -0.216336
-0.49083 -0.598991 0.469273
-0.0157725 0.708552 -0.174375
0.487818 -0.671518 0.0848889
0.149604 -0.714067 0.333801
0.436695 0.552034 0.515856
-0.424385 -0.00489788 0.515856
0.347711 -0.245726 -0.517237
-0.49083 -0.328833 0.411811
0.491454 -0.57674 0.477646
-0.151698 0.35637 -0.517237
0.491454 0.663282 -0.304045
-0.0928587 0.708552 0.0433677
-0.49083 -0.11873 -0.286782
-0.250603 0.708552 -0.160816
-0.49083 0.08516 0.174293
-0.49083 -0.340481 -0.0184575
0.101388 0.435868 -0.517237
-0.431011 -0.661491 -0.517237
-0.212536 -0.714067 -0.137854
-0.311447 -0.714067 0.0386713
0.491454 -0.577645 -0.435451
-0.33973 -0.191389 0.515856
-0.156812 0.708552 0.249916
-0.468702 -0.689253 -0.215219
-0.440905 -0.196454 -0.517237
-0.438766 -0.581132 0.515856
-0.0325727 -0.688758 0.515856
0.491454 0.666455 0.2068
-0.49083 0.142274 0.136275
-0.0965738 -0.714067 -0.0506659
0.178591 -0.714067 0.210217
0.491454 0.163506 -0.180781
-0.175516 -0.441896 0.515856
-0.49083 0.550172 -0.139108
-0.49083 -0.175961 0.170102
0.0359333 -0.594685 0.515856
-0.151095 -0.714067 -0.513367
-0.114393 -0.714067 -0.124643
0.00730871 0.708552 0.0410753
-0.49083 -0.36783 0.202427
-0.393816 -0.318063 0.515856
0.491454 0.483528 -0.313487
-0.11573 0.464847 0.515856
-0.49083 -0.515445 -0.270918
-0.0621263 0.708552 0.238728
-0.49083 0.658902 0.492628
0.414763 0.124763 0.515856
-0.477951 0.0205399 -0.517237
0.491454 0.185827 -0.30622
-0.294891 0.345156 -0.517237
0.491454 0.599459 0.465266
0.0995435 0.045095 0.515856
-0.451358 0.454224 -0.517237
-0.468702 -0.686738 0.459082
-0.49083 0.230584 0.262223
0.0374429 0.708552 -0.332757
-0.428645 0.0884673 -0.517237
0.491454 -0.657441 0.323919
-0.228141 0.304603 0.515856
0.491454 -0.301104 0.0510634
-0.0536833 -0.714067 -0.406564
-0.49083 0.431642 -0.347603
-0.282741 -0.00235766 0.515856
0.0355207 -0.714067 -0.233668
-0.250703 0.0613443 -0.517237
-0.49083 -0.126365 0.0730427
-0.296718 -0.56317 0.515856
0.299664 -0.363968 -0.517237
-0.49083 0.589143 -0.403744
0.422049 -0.0457793 -0.517237
-0.0496473 0.402235 -0.517237
-0.49083 0.493216 0.495323
-0.49083 -0.282241 -0.423961
-0.49083 0.630403 0.00652805
-0.49083 -0.33454 -0.166863
0.00199527 -0.464019 -0.517237
-0.49083 0.529047 0.190611
-0.349513 -0.0195557 -0.517237
0.026115 0.708552 -0.445492
0.491454 0.452652 0.355421
0.460106 -0.00811141 0.515856
0.491454 0.266354 0.381024
0.114726 0.17823 0.515856
-0.295819 0.613651 0.515856
-0.49083 -0.133304 -0.401828
0.491454 0.208011 0.0110803
0.262079 0.675471 0.515856
-0.00342084 0.165933 0.515856
0.292904 0.344684 -0.517237
-0.315441 -0.714067 0.231181
0.360886 -0.547144 -0.517237
0.491454 -0.398266 0.39545
0.462264 0.295545 -0.517237
-0.431522 -0.109628 0.515856
-0.434292 -0.351581 -0.517237
0.178081 0.0664386 0.515856
-0.174662 0.633922 -0.517237
-0.49083 -0.0516476 -0.0275078
0.491454 0.317105 0.0481717
-0.0122677 -0.573569 -0.517237
0.454389 -0.714067 -0.498401
0.201002 0.708552 0.291437
-0.0635055 -0.370706 0.515856
-0.132851 -0.714067 -0.255635
-0.0780686 -0.714067 0.279439
0.160257 0.160329 -0.517237
-0.49083 0.0871059 0.39958
0.491454 -0.0360627 0.368339
0.491454 -0.519413 -0.384017
-0.434887 0.335212 -0.517237
0.191587 -0.069827 -0.517237
-0.482273 -0.671518 0.272856
-0.225156 -0.714067 -0.216703
-0.49083 -0.0167628 0.18805
-0.333555 0.708552 0.140321
-0.224947 0.708552 0.346292
-0.49083 -0.523699 0.0114249
0.408686 -0.714067 -0.317279
0.491454 -0.0384114 -0.230908
-0.237851 -0.714067 0.071477
0.232226 -0.16402 0.515856
-0.277945 0.708552 -0.343972
-0.49083 0.566855 -0.515571
0.25161 0.230178 0.515856
0.357525 -0.313479 -0.517237
0.491454 -0.372545 0.175052
0.0660438 -0.0154428 0.515856
-0.415956 -0.468978 -0.517237
-0.49083 -0.652275 -0.0564681
-0.456514 0.708552 -0.16781
0.163344 -0.714067 -0.455816
-0.413995 0.708552 0.515637
-0.38013 0.708552 -0.312662
0.282646 0.0230347 -0.517237
-0.10812 0.708552 -0.0144927
-0.436539 0.708552 0.458409
-0.49083 -0.144496 0.321593
-0.49083 0.387429 -0.397923
-0.49083 -0.559986 -0.370538
-0.439251 0.487634 0.515856
0.458922 -0.311853 0.515856
0.352401 0.0555471 0.515856
-0.378296 0.50547 -0.517237
-0.0692593 0.708552 0.397555
0.491454 0.102165 -0.364912
0.20596 -0.035658 0.515856
0.491454 -0.0205539 0.145992
-0.398513 -0.542837 0.515856
-0.360369 0.0879974 0.515856
-0.49083 0.34986 -0.277441
-0.49083 0.388995 0.358415
0.120399 -0.143543 -0.517237
-0.436706 0.708552 -0.220771
0.123604 -0.517043 0.515856
-0.115206 0.171542 -0.517237
-0.49083 0.511744 0.0454903
0.491454 -0.123245 -0.247028
0.491454 -0.247426 0.239925
-0.418206 -0.714067 0.136188
0.491454 0.0891821 -0.212186
0.291866 0.493184 -0.517237
0.187516 -0.714067 0.397705
-0.462752 -0.714067 -0.0397113
-0.290302 0.70195 -0.517237
-0.49083 0.437428 0.218073
0.299301 -0.65932 -0.517237
-0.49083 -0.574344 0.22159
-0.0752598 -0.243873 0.515856
0.253745 -0.714067 0.0413704
0.131369 -0.714067 -0.325477
0.00470136 0.708552 0.223239
-0.49083 0.0215568 -0.242581
-0.35572 0.239562 -0.517237
-0.49083 -0.402761 -0.487726
-0.49083 0.1169 -0.464261
-0.473315 -0.671518 -0.314684
-0.0162108 -0.714067 0.204146
0.218658 0.397433 -0.517237
-0.49083 -0.641107 0.0353521
0.0427405 -0.376386 -0.517237
0.105552 -0.163552 0.515856
0.491454 -0.346336 -0.471079
0.191893 -0.714067 0.275857
-0.276235 0.708552 -0.0876912
-0.490336 0.708552 -0.454041
-0.121406 -0.714067 0.147328
0.235197 -0.471039 0.515856
0.491454 -0.0777883 0.257753
0.291787 0.0235313 0.515856
-0.49083 0.142825 -0.1432
0.312413 0.708552 0.0483918
0.491454 -0.436082 -0.227943
-0.49083 0.254522 0.0338959
-0.331465 0.708552 0.37327
-0.18598 -0.371159 -0.517237
-0.141901 0.708552 0.154634
-0.312808 0.708552 0.293808
-0.49083 0.541266 -0.346527
-0.265628 -0.465161 0.515856
0.491454 0.514529 -0.0343396
0.110488 0.708552 -0.0983279
0.431804 -0.714067 0.0892546
0.293884 0.354614 0.515856
-0.164311 0.268034 0.515856
-0.49083 -0.183963 -0.494877
0.299397 -0.0579276 0.515856
-0.49083 -0.308216 -0.118454
-0.126089 0.388007 0.515856
0.491454 -0.135444 0.371513
-0.0818182 -0.601541 0.515856
0.414633 -0.652423 0.515856
0.0879916 -0.714067 0.298508
0.442667 -0.0986235 -0.517237
0.370483 -0.714067 0.249607
-0.49083 -0.282747 -0.333734
-0.447525 0.0956507 0.515856
0.491454 0.675941 -0.474985
-0.49083 -0.447699 -0.200172
-0.225951 -0.270082 -0.517237
0.491454 -0.140424 -0.454042
-0.49083 -0.605395 -0.146189
-0.438053 0.708552 0.0696643
-0.320481 0.665816 0.515856
-0.49083 -0.330628 0.0945858
0.296021 -0.714067 0.0773215
-0.151039 0.544044 -0.517237
0.491454 0.186285 0.0643697
0.0806434 -0.714067 0.4927
-0.384666 -0.14489 -0.517237
-0.165679 -0.186363 -0.517237
0.00353935 0.0889383 0.515856
0.0127613 -0.714067 0.298844
-0.0702307 -0.184088 -0.517237
0.491454 -0.668584 0.449554
0.341327 0.708552 0.304795
0.260242 -0.227844 0.515856
0.491454 0.044556 -0.158798
-0.340415 0.708552 0.459807
0.420834 0.183076 0.515856
0.439732 -0.195059 0.515856
0.491454 0.0104708 0.0439008
0.409233 0.708552 -0.210412
0.0312241 -0.419783 0.515856
-0.49083 0.213946 0.445134
-0.132885 -0.144644 0.515856
0.369404 0.708552 -0.110901
-0.49083 0.670482 0.360137
-0.49083 0.482156 -0.369971
-0.251478 0.708552 -0.250901
-0.49083 -0.29749 0.284338
-0.207931 -0.638086 -0.517237
0.491454 0.572264 0.28846
0.22141 0.357284 0.515856
0.00555534 -0.714067 0.114836
0.491454 0.319284 -0.0579687
-0.0894112 -0.714067 0.00604133
0.491454 -0.201983 0.110031
0.0905437 -0.714067 -0.0408091
0.377921 0.363051 -0.517237
-0.115174 -0.537343 -0.517237
-0.275505 -0.714067 -0.494637
-0.120292 0.708552 -0.437316
0.491454 0.616893 -0.212489
-0.34032 0.708552 -0.221077
-0.0118866 0.203191 -0.517237
0.324629 -0.714067 -0.0432309
-0.49083 0.478216 0.286533
0.246457 0.708552 0.25923
0.0669965 -0.714067 0.024042
-0.482485 0.624649 -0.517237
0.427193 0.482363 -0.517237
-0.343786 -0.714067 -0.163986
0.32959 -0.673602 0.515856
-0.211412 0.461931 -0.517237
0.170042 -0.527133 -0.517237
-0.249056 -0.714067 0.353201
0.26031 -0.714067 -0.192893
0.125515 0.571742 -0.517237
-0.413182 -0.714067 -0.39429
-0.394453 -0.714067 -0.510664
0.297105 0.602712 -0.517237
0.361686 0.11063 0.515856
-0.49083 -0.488894 0.380195
-0.290356 -0.339149 -0.517237
-0.49083 0.5925 0.476469
0.104866 -0.714067 0.128198
0.313689 0.708552 -0.0599896
-0.437936 -0.200741 0.515856
-0.49083 0.483742 -0.0606718
0.118655 0.708552 -0.205687
0.405131 0.543715 -0.517237
0.115239 0.126278 -0.517237
0.450696 -0.584237 0.515856
0.491454 0.461966 0.0817227
0.487416 0.0953199 0.515856
0.491454 0.312085 0.482573
0.491454 -0.539586 0.380483
0.0151357 0.580802 0.515856
-0.434501 0.56888 0.515856
0.491454 0.607957 -0.155624
0.467883 0.708552 0.00818368
-0.133589 -0.539597 0.515856
-0.154677 0.708552 -0.060193
0.491454 0.146826 -0.418848
-0.179395 -0.374392 0.515856
-0.49083 0.42332 -0.135603
0.017282 -0.0933505 0.515856
0.303551 -0.419142 -0.517237
-0.330657 -0.283175 0.515856
0.210841 -0.704831 -0.517237
0.491454 0.24654 0.124632
0.491454 -0.317628 -0.388076
0.491454 0.338442 0.172568
-0.172949 -0.0307305 0.515856
0.491454 0.462916 0.29964
-0.324434 0.157693 -0.517237
0.347864 0.539127 -0.517237
0.456577 -0.712316 0.515856
-0.49083 0.495132 -0.191118
0.491454 -0.209024 0.463786
0.00786256 -0.289606 -0.517237
-0.354575 -0.478022 -0.517237
0.0811755 0.708552 0.363092
-0.49083 -0.0597866 0.507307
-0.194784 0.652423 0.515856
-0.382091 0.664868 0.515856
0.186286 0.211811 -0.517237
0.406571 -0.714067 0.453262
-0.49083 0.334718 0.22009
0.217838 -0.714067 -0.374379
0.235669 0.0253004 0.515856
-0.49083 0.190516 0.350008
0.491454 0.386087 -0.289401
-0.49083 0.38629 0.187925
0.462779 -0.545641 -0.517237
-0.478991 0.137057 0.515856
0.427592 -0.480499 0.515856
0.491454 0.701928 -0.145982
0.446149 -0.0991595 0.515856
0.108441 0.708552 -0.390927
-0.211642 -0.546261 0.515856
-0.270764 0.494018 -0.517237
-0.0146707 -0.714067 -0.0659596
0.349575 0.708552 0.116886
-0.49083 -0.496717 0.274526
0.0343438 -0.646517 0.515856
0.491454 0.00307129 -0.276475
0.28921 -0.714067 -0.434233
-0.373936 0.192734 0.515856
-0.308761 0.0840197 0.515856
-0.348279 -0.555242 0.515856
0.491454 0.653761 -0.252119
-0.49083 -0.502462 -0.459917
0.491454 0.563807 -0.487094
0.106106 0.297081 -0.517237
-0.49083 -0.228281 0.131867
-0.167073 0.708552 -0.256452
-0.49083 0.312331 -0.182573
-0.40585 0.708552 -0.359889
-0.468702 -0.683864 0.359548
-0.238272 -0.177862 0.515856
0.404464 -0.714067 0.349122
-0.36078 -0.111937 0.515856
-0.49083 -0.175296 -0.0980653
-0.49083 0.584816 0.306482
-0.0980162 0.708552 0.32903
-0.49083 -0.616385 -0.432653
-0.0901665 0.708552 -0.324748
-0.0518173 -0.0512103 0.515856
0.317164 -0.517608 0.515856
-0.176428 0.708552 -0.46909
0.0499594 0.320449 -0.517237
0.104468 0.708552 0.105968
0.205442 -0.174693 -0.517237
0.491454 -0.464987 -0.454819
-0.255723 -0.539704 -0.517237
0.491454 0.249247 -0.137522
-0.49083 -0.559586 0.353051
0.491454 -0.387204 -0.515152
0.365527 -0.158436 0.515856
0.491454 0.603212 0.025754
0.38583 0.300986 0.515856
0.0365721 -0.714067 -0.0696658
0.491454 0.0475898 0.288685
-0.0524758 0.708552 -0.089174
-0.49083 -0.00996647 0.45445
0.0152246 0.241806 0.515856
-0.20533 0.0839131 0.515856
0.491454 0.659638 -0.0694989
-0.49083 0.254526 -0.102612
-0.0584261 -0.0100711 -0.517237
0.162128 0.708552 0.193834
0.491454 -0.56586 -0.173206
0.324956 -0.714067 -0.131103
0.455325 0.708552 0.302205
-0.335279 0.708552 -0.017104
0.491454 0.129837 -0.108796
-0.121163 0.708552 -0.231715
0.0837691 0.613093 0.515856
-0.399651 -0.714067 -0.273654
0.491454 -0.399795 0.446238
-0.49083 0.536736 -0.0794268
0.144567 0.708552 0.274852
-0.46548 0.708552 0.134096
0.0385387 0.64851 -0.517237
0.491454 -0.377095 0.343513
0.469327 -0.690656 -0.0071386
0.313113 0.708552 -0.376928
-0.131593 -0.714067 -0.312057
-0.0797657 0.708552 -0.489637
0.345193 0.490772 0.515856
0.41001 0.708552 -0.478872
0.344718 -0.36252 0.515856
-0.49083 -0.108412 -0.16036
-0.35873 -0.710295 0.515856
-0.14613 -0.310975 0.515856
0.0980468 -0.703941 -0.517237
-0.49083 0.672259 -0.143648
-0.49083 0.144861 0.0272378
0.26766 0.550834 0.515856
-0.49083 -0.0481695 -0.0912571
-0.414966 0.390087 -0.517237
-0.414744 -0.242297 -0.517237
-0.49083 0.5377 -0.4578
0.491454 0.534332 -0.142912
0.0861632 -0.192224 -0.517237
-0.49083 -0.312527 -0.38374
-0.49083 0.368801 0.299759
0.491454 0.325155 0.288728
0.119295 -0.714067 -0.223733
0.206423 -0.714067 -0.204556
0.491454 -0.149745 -0.10073
0.28051 -0.274005 0.515856
0.406514 0.363284 0.515856
0.235483 -0.11784 -0.517237
0.280295 -0.714067 0.320547
-0.438423 0.708552 0.392268
-0.412305 0.142714 -0.517237
-0.384876 0.708552 -0.116609
-0.49083 -0.668045 0.169389
0.0578624 0.498529 0.515856
0.23435 0.525661 -0.517237
0.491454 -0.667497 0.0315748
0.367144 0.708552 0.253031
-0.332957 -0.524766 -0.517237
-0.49083 0.0510531 -0.0123158
-0.49083 0.548003 0.0913268
-0.0801705 -0.714067 -0.334244
0.0124217 0.258121 -0.517237
-0.49083 0.595282 -0.200365
0.372456 -0.320746 0.515856
-0.0221551 -0.714067 -0.242946
0.284375 -0.112393 0.515856
-0.415551 0.708552 0.297568
0.248828 -0.714067 0.272839
-0.103206 0.0603225 0.515856
-0.322619 -0.714067 -0.436164
0.108472 -0.714067 0.446933
-0.425871 -0.714067 -0.19758
-0.179634 -0.641297 0.515856
0.0463302 -0.535871 0.515856
-0.355658 0.708552 0.0820505
-0.101941 -0.14577 -0.517237
-0.49083 -0.0271389 -0.421917
0.421218 -0.714067 -0.135177
0.125025 0.708552 -0.266537
-0.49083 0.096552 -0.323794
0.0545639 0.708552 -0.281679
-0.49083 0.645651 0.0695883
0.491454 0.246971 -0.354798
0.491454 -0.239151 0.142825
0.266612 -0.480525 -0.517237
0.435112 0.708552 0.470197
0.491454 0.241379 -0.252962
0.491454 0.636065 -0.363417
-0.49083 -0.399444 -0.385607
0.0372671 -0.426857 -0.517237
-0.274854 0.241646 0.515856
0.491454 0.441693 -0.0754728
-0.358191 -0.714067 0.0212461
-0.451274 -0.4031 -0.517237
0.348906 -0.277402 0.515856
0.491454 0.665581 0.292759
-0.42544 -0.428956 0.515856
0.491454 -0.0494154 -0.180049
-0.192449 0.708552 -0.166795
0.491454 0.645374 0.125622
0.00193012 -0.714067 0.474124
0.382883 -0.43956 -0.517237
-0.00170991 -0.714067 0.40531
-0.0185881 0.659517 0.515856
0.448239 -0.714067 0.311551
0.453048 -0.714067 0.168904
0.214024 0.708552 -0.245723
-0.198421 -0.714067 -0.0360703
0.329606 0.708552 0.461455
0.491454 -0.619105 0.00676598
0.190041 -0.714067 -0.144097
-0.0658809 0.581766 -0.517237
0.0645066 0.708552 0.00670477
-0.0822368 -0.66453 0.515856
0.334644 0.651676 0.515856
0.491454 0.0315913 -0.111522
0.35365 -0.714067 0.183288
0.0581368 -0.476947 -0.517237
-0.49083 0.367146 0.408673
-0.49083 0.684966 0.30814
-0.120953 0.708552 0.214838
-0.375009 0.017198 0.515856
-0.49083 -0.24591 -0.227983
0.491454 -0.62561 0.113334
0.491454 0.0306544 0.240442
-0.49083 0.527878 -0.27575
0.0415706 -0.00632546 -0.517237
0.0603789 0.708552 -0.376936
0.173421 -0.257052 -0.517237
0.0695071 0.0637631 -0.517237
-0.403816 -0.714067 0.194545
-0.054791 0.708552 0.296518
-0.111603 -0.714067 -0.412717
-0.403592 -0.714067 0.293344
-0.49083 -0.503719 -0.103178
0.112283 0.708552 0.0561991
0.491454 -0.248422 -0.26523
-0.310389 -0.0649529 -0.517237
0.386862 -0.110035 0.515856
-0.227149 0.612903 -0.517237
0.317049 0.708552 0.347016
0.491454 0.303882 -0.467395
-0.200502 0.231289 -0.517237
-0.139772 0.22608 0.515856
0.491454 0.644216 0.509838
-0.166273 -0.50692 -0.517237
-0.49083 -0.465403 -0.314349
-0.218874 0.024714 -0.517237
0.256389 0.141616 -0.517237
0.400147 -0.215602 -0.517237
-0.49083 -0.27652 0.0226303
0.491454 -0.190758 -0.011216
0.491454 0.171435 0.472398
0.0382702 0.708552 0.51134
-0.113594 -0.268371 -0.517237
-0.49083 0.636852 -0.297157
-0.0193858 -0.332174 0.515856
-0.49083 0.0418568 -0.0651105
0.176558 0.708552 -0.0198269
0.491454 0.072299 0.163653
0.491454 0.620163 -0.0417253
-0.49083 0.0554998 -0.34912
0.273857 0.700432 -0.517237
-0.49083 -0.159623 0.0192647
-0.276898 0.428754 0.515856
-0.49083 0.174352 0.232137
-0.261789 -0.160214 -0.517237
0.275516 0.708552 0.381097
0.106487 -0.255531 -0.517237
0.00679928 -0.714067 -0.428208
-0.49083 0.283212 0.353964
0.238681 0.708552 -0.452872
0.491454 -0.387245 0.28198
-0.308968 -0.714067 -0.217166
-0.49083 -0.598761 -0.195102
0.491454 0.182899 -0.258216
-0.244246 -0.714067 0.124664
-0.139461 0.708552 0.497939
0.217495 0.453749 0.515856
0.197542 -0.714067 0.101303
0.138025 0.644286 -0.517237
0.491454 0.00518008 -0.394644
0.491454 -0.467028 0.382504
-0.0571821 0.291201 0.515856
0.445537 -0.254625 -0.517237
0.186495 -0.458282 0.515856
0.491454 0.355953 0.0872366
-0.0474063 -0.147391 0.515856
0.491454 -0.250266 -0.460759
0.0339815 -0.714067 -0.180456
0.465261 0.659302 -0.517237
0.491454 0.00903237 -0.0224806
0.491454 -0.280952 0.332868
-0.49083 -0.346529 -0.213793
-0.147464 -0.194795 0.515856
0.23372 0.074776 -0.517237
0.232358 0.634187 -0.517237
0.133557 -0.437234 -0.517237
0.0515015 0.447617 -0.517237
0.491454 -0.227072 0.0693543
-0.419287 -0.636015 0.515856
-0.178951 0.144697 -0.517237
0.086563 -0.27876 0.515856
-0.47113 0.708552 -0.0535537
0.479809 -0.441946 -0.517237
-0.183738 0.708552 0.370374
0.372284 -0.0127693 -0.517237
0.39366 -0.390611 0.515856
0.277928 -0.714067 -0.0335429
0.491454 0.222759 0.501434
-0.49083 0.0679758 -0.231775
0.302492 0.307739 0.515856
-0.49083 0.544392 0.470302
-0.348722 0.253774 0.515856
-0.49083 0.0395861 0.514894
-0.399208 -0.0941936 -0.517237
0.0174923 -0.145199 -0.517237
-0.384793 -0.30802 -0.517237
0.491454 0.706199 0.394591
-0.417666 -0.714067 0.458855
0.0895426 0.317377 0.515856
-0.391276 0.708552 0.166015
-0.458932 -0.320797 0.515856
0.0748936 -0.714067 0.39142
0.491454 0.431662 -0.442972
-0.49083 -0.359604 -0.126661
0.175788 -0.285361 0.515856
-0.49083 -0.161653 0.215252
0.491454 -0.491003 0.0477906
-0.326526 0.708552 -0.466002
0.2136 -0.248252 0.515856
0.491454 -0.493821 0.188762
0.448668 -0.380023 0.515856
0.272098 0.708552 -0.148929
-0.49083 0.191918 0.031561
0.324791 0.390355 0.515856
-0.49083 0.268535 -0.200535
0.491454 0.655159 0.395455
0.491454 -0.350265 -0.065309
-0.49083 -0.278821 0.122001
0.491454 -0.194105 0.349779
-0.31468 -0.714067 0.166142
0.365515 -0.714067 0.133694
0.491454 0.535853 0.0429175
0.491454 -0.634671 0.366031
0.105235 -0.559532 -0.517237
0.491454 -0.0458643 0.42518
-0.244301 0.708552 0.390481
-0.384531 0.708552 -0.26124
0.132278 0.708552 -0.478908
-0.49083 0.672131 0.204507
0.105326 -0.714067 0.349713
-0.0586531 -0.714067 0.227633
0.491454 0.609245 -0.449584
-0.49083 0.314996 -0.120728
-0.49083 0.430762 0.264582
-0.0071201 0.0201084 0.515856
0.464814 0.448278 -0.517237
-0.49083 -0.298733 -0.0698267
0.401173 -0.33074 -0.517237
0.491454 -0.230289 -0.405336
0.488913 0.116678 -0.517237
0.491454 0.519958 -0.470519
-0.0542312 0.175964 0.515856
0.33727 -0.714067 0.046445
0.491454 0.0874752 0.0965948
0.491454 -0.228329 -0.0446989
0.307612 -0.714067 -0.389714
-0.275313 -0.0682139 0.515856
-0.49083 0.655386 -0.199929
-0.347036 0.492125 0.515856
-0.49083 0.527681 0.137173
0.491454 0.491246 0.203764
-0.49083 0.636542 -0.472793
-0.49083 -0.283693 0.200883
0.491454 -0.0890174 0.13545
-0.0774427 -0.0948235 -0.517237
0.491454 0.357409 0.423521
-0.213363 -0.714067 -0.466457
0.469327 -0.71049 0.406378
0.289252 0.708552 0.497241
0.491454 0.103117 0.344959
0.158077 0.694049 -0.517237
-0.00947669 -0.360953 -0.517237
-0.0212083 -0.714067 0.0333697
-0.116343 0.0247683 -0.517237
-0.49083 0.321752 0.113304
0.491454 0.495631 0.332778
0.491454 -0.648546 -0.214324
-0.49083 0.0409752 0.081545
0.0453913 0.400299 0.515856
-0.49083 0.0015203 -0.297667
0.48876 -0.671518 -0.38886
0.219576 0.142626 0.515856
-0.172388 0.383511 0.515856
0.382379 -0.714067 -0.160735
-0.46145 0.530415 -0.517237
0.0439923 -0.0956113 -0.517237
0.491454 0.40353 0.255479
0.397118 -0.119703 -0.517237
0.263468 0.248513 -0.517237
-0.49083 -0.591403 0.414591
0.289791 -0.714067 0.460774
0.158862 -0.666572 -0.517237
-0.0896324 -0.45158 -0.517237
0.491454 -0.109513 0.0375794
-0.0488319 -0.508123 0.515856
-0.462395 -0.714067 0.0315709
-0.49083 0.447907 0.474406
-0.49083 -0.50949 0.157719
-0.46351 0.250308 -0.517237
0.491454 -0.295445 0.487386
0.460054 0.487011 0.515856
-0.121129 0.126702 0.515856
-0.49083 0.676646 0.0353353
0.383068 0.0411845 -0.517237
0.210183 -0.714067 -0.289489
-0.49083 0.409482 -0.0348836
-0.243198 0.594982 0.515856
0.491454 0.390912 -0.00123577
0.491454 -0.528324 -0.0157969
-0.468702 -0.671722 0.126579
0.181204 -0.672227 0.515856
-0.174594 0.708552 0.450012
-0.49083 -0.0919121 0.261147
-0.240876 0.708552 -0.0497665
0.491454 -0.639471 0.195444
-0.101943 0.670872 -0.517237
-0.381554 0.708552 -0.48646
-0.034875 -0.714067 0.0928906
0.491454 -0.0921421 -0.133281
0.433197 -0.714067 -0.242603
0.277046 0.708552 -0.321423
-0.49083 -0.480155 -0.00329915
-0.336708 -0.617703 -0.517237
0.183076 0.594028 0.515856
0.491454 0.0451394 0.406244
0.491454 0.403383 0.10461
0.491454 -0.434328 -0.0900872
-0.328866 0.100739 -0.517237
-0.468702 -0.70807 -0.435788
-0.0872965 -0.714067 0.446426
-0.0369344 -0.714067 -0.510769
-0.49083 -0.0741878 -0.297497
0.491454 -0.00194992 0.312577
-0.260309 -0.714067 -0.0409335
-0.49083 -0.211284 -0.149885
0.491454 -0.0215865 0.100211
0.258452 0.708552 0.118991
-0.487313 -0.274784 -0.517237
0.213708 0.303035 -0.517237
-0.363153 0.385966 -0.517237
-0.456208 -0.0345789 -0.517237
-0.0815507 -0.313508 -0.517237
-0.0297619 0.509008 -0.517237
-0.144722 0.708552 -0.104772
0.25177 -0.714067 -0.318075
-0.49083 -0.46645 -0.0745636
0.4093 -0.00309613 0.515856
-0.49083 0.594796 0.393882
0.491454 -0.127097 -0.036944
0.491454 0.0118984 0.478743
0.491454 0.683163 -0.214973
0.427542 0.708552 -0.297471
0.127959 -0.344579 0.515856
-0.120524 -0.714067 0.0824504
0.491454 -0.295285 -0.500541
0.393343 -0.714067 0.029859
0.491454 0.245298 -0.0824093
-0.471207 -0.671518 0.0628374
-0.42563 0.708552 -0.472803
-0.183367 -0.123515 0.515856
0.0189179 0.159288 -0.517237
0.491454 -0.155784 -0.411419
-0.368996 0.567102 0.515856
-0.49083 -0.594772 0.288829
-0.202544 -0.560952 -0.517237
0.382989 0.708552 -0.44265
0.0424038 -0.647412 -0.517237
-0.49083 -0.391322 -0.0594762
0.0837325 0.707689 0.515856
-0.321102 -0.714067 0.325684
-0.353773 -0.388839 -0.517237
0.451519 0.607022 -0.517237
-0.470044 -0.473474 0.515856
0.491454 0.302404 -0.315377
-0.19933 -0.714067 0.244405
-0.49083 0.208018 0.489812
0.299879 -0.714067 -0.490134
-0.49083 -0.134439 -0.024389
-0.0580864 0.447852 -0.517237
-0.209173 -0.0874605 -0.517237
-0.453544 -0.669118 0.515856
-0.129111 0.549373 0.515856
-0.320431 -0.237447 0.515856
0.491454 0.115118 0.0066248
-0.054787 -0.62635 -0.517237
0.491454 -0.350231 0.43399
0.00715963 0.302687 -0.517237
