ply
format ascii 1.0
comment Created by Open3D
element vertex 1670
property double x
property double y
property double z
end_header
-0.514018 -0.477759 -0.119749
0.406267 -0.235849 0.408455
-0.514018 -0.281496 -0.170345
0.512265 0.503851 0.288425
0.512265 -0.132826 0.0228945
-0.514018 -0.0468485 -0.39036
0.424441 -0.0568422 0.408455
-0.514018 0.599276 -0.253492
-0.139477 -0.659943 0.254001
0.0661498 0.464819 0.371373
0.095729 0.251338 -0.555671
0.351102 0.00544422 -0.555671
-0.514018 0.0403794 -0.146716
0.512265 0.0151033 0.272522
0.179603 0.649527 -0.200755
0.111967 -0.646782 0.3866
-0.450434 -0.659943 0.0469917
-0.382219 0.356539 0.408455
-0.514018 0.0960358 0.367412
0.409631 -0.659943 0.269591
0.512265 0.525232 0.0421204
-0.0881898 0.649469 0.408455
-0.0174838 -0.629724 -0.555671
0.512265 -0.0888908 -0.295608
0.512265 -0.623868 -0.0689875
-0.195297 0.460324 0.371373
0.151321 -0.659943 -0.488613
0.345031 -0.659943 -0.380037
-0.122212 0.649527 0.000840634
0.0678874 -0.659943 0.0563873
-0.514018 0.306513 -0.386064
-0.513306 -0.48719 0.408455
-0.514018 -0.370363 -0.45038
0.0774551 -0.288761 0.408455
0.220928 0.525345 -0.555671
0.512265 0.0876229 -0.0613198
0.175568 0.318992 0.408455
-0.131584 -0.0210425 -0.555671
0.255979 -0.514158 -0.555671
-0.226399 -0.659943 -0.38955
-0.115043 0.171695 -0.555671
-0.329376 0.642627 0.408455
0.0612409 -0.260674 -0.555671
-0.37436 -0.659943 -0.209228
0.512265 -0.283814 0.221745
-0.514018 0.472122 -0.510173
0.512265 0.484695 -0.206385
0.16445 0.649527 -0.39609
0.285522 0.649527 0.0944323
0.156984 -0.0788893 0.408455
-0.514018 0.497546 0.0356682
0.150053 -0.659943 -0.179697
-0.514018 0.0922606 0.079197
-0.338149 -0.533802 -0.555671
-0.514018 -0.497372 0.0289736
-0.151758 0.47243 -0.555671
-0.00755831 0.649527 -0.440956
-0.514018 0.633258 -0.0985032
-0.126345 -0.659943 0.104734
-0.399135 0.0171678 -0.555671
0.512265 0.34353 -0.239603
0.351663 0.631623 0.408455
0.371862 0.649527 -0.176423
-0.248401 -0.506335 0.408455
0.0969521 0.40924 -0.555671
0.512265 -0.618828 -0.22704
-0.514018 -0.529281 -0.385641
0.512265 -0.360157 -0.255397
-0.514018 0.564165 0.2557
-0.514018 0.620878 -0.394047
0.450168 0.649527 0.0014897
0.512265 0.0553032 -0.511827
0.512265 0.548826 -0.527303
0.371301 0.287352 -0.555671
0.176468 0.624549 0.408455
0.449361 0.649527 0.28122
0.00156036 -0.527457 0.371373
-0.514018 -0.24792 -0.520971
-0.240018 -0.357189 0.371373
-0.514018 -0.566976 -0.225523
-0.514018 0.311352 0.276043
-0.284442 0.649527 -0.254965
0.301489 0.649527 -0.458287
-0.248279 0.649527 -0.442021
-0.370652 -0.574786 0.371373
0.512265 -0.126426 -0.427416
0.224617 -0.342372 0.408455
0.328615 0.368143 0.408455
0.512265 0.234134 0.363384
-0.118882 -0.302317 0.408455
0.512265 -0.165309 0.154907
-0.174665 -0.118765 0.371373
-0.514018 -0.211821 -0.0449758
0.391735 -0.572434 0.371373
-0.514018 -0.14747 0.310833
0.512265 0.0656508 -0.229107
-0.377375 -0.188589 -0.555671
0.512265 -0.5074 0.339496
0.358299 0.465431 -0.555671
0.303426 -0.0993345 0.371373
0.512265 -0.383707 -0.0618641
-0.373312 0.159276 -0.555671
-0.1809 -0.659943 -0.0922135
-0.28429 0.649527 0.173092
0.345226 -0.339293 -0.555671
-0.109817 -0.50846 -0.555671
-0.0363327 0.649527 -0.189905
-0.514018 0.176674 -0.18853
-0.514018 -0.550329 0.296012
-0.400342 -0.310699 0.371373
-0.276245 -0.30653 -0.555671
-0.349408 -0.659943 -0.338577
0.16149 -0.659943 0.257447
0.211282 -0.524311 0.371373
-0.497719 -0.659943 -0.480911
-0.00682847 -0.383941 0.371373
-0.400813 0.379167 -0.555671
-0.20869 0.358977 -0.555671
0.140416 0.521857 0.473763
-0.224738 0.146882 0.408455
-0.514018 -0.404957 0.115007
0.512265 0.615906 -0.262908
-0.393202 -0.175226 0.371373
-0.389993 0.649527 0.0962728
0.373072 0.139767 -0.555671
-0.412001 0.557141 0.371373
0.512265 -0.407949 -0.505
0.130622 0.649527 0.233823
0.163686 0.0343282 -0.555671
0.512265 0.347251 0.279358
0.150927 0.0553013 0.408455
-0.512448 -0.659943 0.2288
-0.514018 0.0247893 -0.2905
0.0514722 -0.659943 -0.0974974
0.510141 0.478303 0.408455
0.11202 -0.399332 -0.555671
-0.308644 -0.0694178 0.371373
0.0846323 -0.172516 0.371373
-0.0869859 0.649527 0.286339
0.427897 -0.659943 -0.46905
-0.267926 0.649527 -0.0929068
0.512265 0.343358 0.0386683
-0.416996 0.527979 -0.555671
0.512265 -0.563163 -0.454831
-0.107948 0.0365379 0.371373
-0.183712 0.520811 0.474565
-0.156908 -0.574833 0.371373
0.360396 0.121404 0.408455
0.0289135 0.649527 0.0552854
-0.47945 -0.419432 -0.555671
0.344369 0.516297 0.371373
-0.514018 -0.113307 0.12962
0.16252 0.649527 -0.0366457
0.512265 0.515122 0.160968
-0.502265 -0.372456 0.371373
0.380872 -0.570225 -0.555671
-0.514018 -0.230276 0.0727092
0.512265 0.531087 -0.0800409
0.281609 -0.659943 -0.216885
-0.0888793 -0.659943 -0.288029
0.512265 -0.561362 0.2338
-0.140982 0.360424 0.408455
-0.431257 0.649527 -0.472971
-0.240224 0.565922 -0.555671
-0.514018 0.436807 -0.24013
-0.514018 0.0650132 -0.426059
0.238138 0.134066 0.371373
0.512265 0.318407 -0.480452
0.512265 0.172754 -0.276475
-0.514018 0.0393948 -0.0252096
-0.514018 0.19611 -0.451698
-0.127063 -0.659943 -0.449745
0.512265 -0.258148 0.339762
0.303223 -0.659943 -0.0820823
0.492727 -0.155272 0.408455
-0.276338 -0.659943 0.237619
-0.514018 0.117868 0.248106
0.512265 0.528519 -0.414595
0.402561 -0.659943 -0.281064
-0.347664 0.0323647 0.408455
-0.514018 0.339004 0.137391
0.385875 -0.659943 0.140323
0.512265 -0.15634 -0.193682
-0.210065 0.609895 0.408455
0.0550118 -0.659943 -0.308711
-0.0755556 -0.0716563 0.408455
-0.410992 0.649527 -0.0373245
0.182893 -0.659943 0.0794643
0.512265 -0.509573 -0.281049
0.0244306 0.563206 0.408455
0.512265 0.134464 0.132526
-0.514018 0.374459 -0.112532
-0.514018 0.25021 0.0566614
0.327662 -0.306532 0.371373
0.000674746 0.649527 -0.552657
0.512265 -0.0150692 0.00219358
0.414085 0.649527 -0.440178
-0.510125 0.649527 0.180703
-0.127357 -0.132606 -0.555671
-0.062581 0.448443 0.371373
-0.514018 -0.118197 -0.109988
0.512265 -0.248099 -0.0374207
-0.198235 -0.659943 0.0175722
0.512265 0.149433 -0.4529
-0.514018 -0.216512 -0.259912
0.214382 -0.203901 -0.555671
0.335866 0.649527 0.196794
-0.36051 0.254828 0.371373
0.40666 0.244111 0.408455
-0.186561 0.649527 0.122951
-0.286951 0.395944 0.371373
0.237284 0.644024 -0.555671
0.512265 0.300528 -0.0618112
0.00331333 0.104842 0.371373
0.0731559 0.311972 0.371373
0.416834 -0.460339 0.408455
0.0843439 -0.0403338 -0.555671
-0.00748331 0.217793 -0.555671
0.120295 0.133768 -0.555671
0.479106 -0.183791 -0.555671
-0.0234167 -0.659943 0.138621
-0.112345 -0.659943 -0.182277
0.512265 -0.402115 0.101742
-0.220572 0.199061 -0.555671
-0.514018 -0.02346 0.344902
-0.208574 -0.553483 -0.555671
0.512265 -0.65633 0.302378
0.230188 0.245677 -0.555671
-0.12322 0.255996 0.371373
-0.00889972 0.222624 0.408455
0.512265 -0.356673 -0.401708
0.512265 0.274189 0.149348
-0.514018 -0.28055 0.282137
0.0440594 0.649527 0.171781
0.512265 0.116985 0.303237
0.422281 0.649527 -0.308651
-0.446807 0.178374 0.371373
0.298995 -0.659943 0.301568
0.512265 -0.068537 0.207608
0.481185 0.649527 -0.523431
-0.426747 0.262881 -0.555671
0.512265 -0.00498797 0.384351
-0.423068 0.649527 -0.266478
0.399452 -0.0901052 -0.555671
-0.514018 0.545184 0.141352
-0.0429272 -0.258075 -0.555671
-0.0998038 0.649527 -0.102483
-0.156301 -0.349935 -0.555671
-0.514018 -0.0084112 0.105076
-0.514018 -0.145043 -0.44938
-0.514018 0.00236716 -0.508581
0.0992186 -0.156552 -0.555671
-0.273867 0.537401 0.371373
-0.00791121 -0.526022 -0.555671
-0.420557 -0.596161 -0.555671
-0.39302 -0.659943 0.145604
0.48229 -0.659943 0.0454907
-0.478346 0.356345 0.371373
-0.344335 -0.43097 -0.555671
0.181182 -0.587949 -0.555671
-0.514018 -0.403144 -0.190424
-0.396099 0.460991 0.408455
0.156348 0.412378 0.371373
0.118878 0.523335 -0.555671
-0.514018 0.243102 -0.285165
-0.514018 0.248351 -0.115987
0.083364 -0.659943 -0.412909
0.393917 0.0328926 0.371373
0.305314 -0.533946 0.408455
-0.514018 -0.305515 -0.321161
-0.514018 -0.126041 -0.327092
0.0680008 0.649527 -0.180403
-0.135486 0.541851 0.371373
0.512265 0.628217 0.205062
0.205881 0.22272 0.408455
-0.241708 -0.196358 -0.555671
0.151727 0.534177 0.371373
0.398738 0.431457 0.371373
-0.171665 -0.2193 0.371373
-0.514018 -0.562836 -0.0473634
-0.514018 0.435962 0.275444
0.302493 0.514129 0.476408
-0.514018 0.55286 0.366508
0.512265 -0.0275678 -0.455766
0.264163 0.593886 0.371373
-0.299825 -0.641422 -0.555671
0.0201073 -0.100402 0.408455
-0.0318027 -0.0270582 -0.555671
0.414049 -0.339843 0.408455
0.512265 -0.527646 -0.547835
-0.514018 -0.472884 -0.467564
0.512265 -0.550594 0.115632
-0.496679 -0.144895 0.408455
-0.0532998 0.432799 -0.555671
-0.514018 0.371476 -0.469911
-0.139106 0.289107 -0.555671
0.107831 -0.659943 0.165885
-0.514018 -0.36159 -0.0946232
-0.121385 0.649527 -0.453063
-0.499468 0.649527 0.305636
-0.287544 -0.00046854 -0.555671
0.384302 0.649527 -0.071227
0.304032 -0.112256 -0.555671
0.23804 -0.417881 -0.555671
0.297352 -0.659943 0.0735448
0.512265 0.614712 0.0986527
0.233474 -0.659943 -0.435727
-0.382967 -0.0911639 -0.555671
-0.089162 0.0668152 -0.555671
0.210467 0.649527 -0.307818
0.220448 0.649527 0.196085
0.512265 -0.360985 0.280894
0.512265 -0.13898 -0.0815429
-0.514018 -0.31184 0.170279
0.099935 -0.532794 0.408455
-0.337297 -0.659943 0.0303823
0.512265 0.121116 0.0369076
-0.238308 0.649527 -0.346231
0.324302 -0.193327 0.371373
0.0164562 -0.659943 0.35008
0.512265 -0.214267 -0.466351
-0.490388 -0.659943 -0.226049
-0.452087 -0.659943 0.322524
-0.407636 0.645635 0.337662
0.361168 0.649527 0.315917
0.512265 -0.522295 -0.0584976
0.512265 0.442204 -0.477375
-0.0157741 -0.274864 0.408455
-0.503222 -0.659943 0.124348
0.43141 0.550149 0.371373
-0.43116 0.0829929 0.408455
-0.514018 0.576123 -0.0147764
-0.514018 0.35456 -0.284226
0.0934125 -0.0205646 0.371373
-0.514018 0.217323 0.273945
0.512265 0.200169 -0.0586034
0.430552 0.0612659 -0.555671
-0.158316 0.649527 0.211284
-0.117583 0.649527 -0.262137
-0.417219 -0.659943 -0.049101
0.271934 0.649527 -0.206758
0.512265 -0.557802 -0.359833
0.337862 0.649527 0.00862079
0.0276875 0.389549 0.408455
0.512265 -0.353629 -0.163484
0.0926433 -0.637536 -0.555671
0.512265 -0.267179 -0.256784
0.218706 -0.433867 0.408455
0.512265 0.33972 -0.376675
0.434861 -0.355912 -0.555671
-0.514018 -0.471207 0.197274
-0.259844 -0.659943 -0.474085
0.183399 0.442572 -0.555671
-0.455568 -0.556775 0.408455
0.0500221 0.50709 0.474492
0.29072 -0.659943 -0.30785
-0.514018 0.564295 -0.464457
-0.514018 0.530194 -0.193294
-0.514018 0.0982897 -0.233352
-0.345466 -0.659943 0.34276
0.512265 0.429342 0.084904
0.463642 0.3079 -0.555671
-0.0964382 -0.510608 0.408455
-0.175326 -0.659943 0.340734
-0.0663023 -0.659943 0.3063
0.412697 -0.139156 0.371373
-0.411586 0.518205 0.47567
0.24524 0.361355 0.371373
0.0795937 0.649527 -0.474063
-0.106166 -0.620204 -0.555671
-0.514018 -0.477453 -0.246512
0.212373 -0.659943 0.342865
-0.320455 -0.366013 0.408455
-0.290487 -0.659943 -0.147178
0.512265 0.588586 0.315612
0.512265 0.42692 0.236265
-0.29862 0.374158 -0.555671
-0.0781961 0.556185 -0.555671
-0.514018 -0.650273 -0.0155851
-0.514018 0.41294 0.0886859
-0.428784 -0.659943 -0.42138
0.512265 -0.175919 -0.283552
0.0362052 -0.45005 -0.555671
-0.514018 0.0744367 0.16736
-0.514018 -0.0928131 0.215004
-0.514018 -0.580724 -0.312215
-0.514018 -0.191899 -0.175671
0.355973 -0.659943 0.368312
0.512265 0.53737 -0.301085
-0.305765 0.649527 0.306369
0.512265 -0.067835 0.320003
0.107753 -0.361568 0.371373
0.158488 0.341415 -0.555671
0.15619 -0.285995 0.371373
-0.125357 0.384035 -0.555671
0.272707 0.450454 -0.555671
0.422469 -0.659138 -0.555671
-0.514018 0.213326 -0.536723
-0.189363 -0.659943 0.164155
-0.0284083 0.649527 -0.345747
0.512265 -0.0611761 0.120881
0.512265 0.0495491 0.193482
0.346357 0.369707 -0.555671
0.160416 0.649527 0.314437
0.47155 -0.659943 -0.145909
0.512265 -0.559171 -0.13579
0.14678 -0.256469 -0.555671
0.206756 0.649527 -0.470483
0.147909 0.649527 -0.121265
0.512265 0.567272 -0.183969
-0.462763 0.649527 -0.165025
0.26816 0.0261451 -0.555671
-0.514018 0.268824 -0.0266548
-0.514018 -0.6025 0.0551575
-0.438548 -0.504665 -0.555671
0.105008 -0.659943 -0.0203719
0.456936 0.484354 -0.555671
-0.266303 0.221254 0.408455
-0.184655 0.649527 -0.0752724
0.434142 0.637471 0.371373
-0.413926 0.640428 -0.555671
0.512265 -0.218117 0.0480341
-0.0300882 -0.659943 -0.121073
-0.266855 -0.659943 -0.304239
0.0590908 0.333522 -0.555671
-0.0371231 0.649527 0.00243686
-0.514018 -0.446796 0.316586
-0.283029 -0.438581 0.371373
-0.0248899 -0.659943 0.0417694
0.512265 0.333587 -0.155863
-0.287074 0.0777648 0.371373
0.505256 -0.306442 0.408455
0.512265 0.423321 0.320277
-0.429494 -0.659943 -0.14576
0.221371 0.649527 0.0401107
0.512265 0.266969 -0.274157
0.0390159 -0.659943 -0.484181
0.482809 -0.545007 0.408455
-0.514018 -0.428477 -0.0186256
0.23013 -0.659943 -0.122933
-0.237622 0.649527 -0.551922
-0.133851 -0.659943 -0.36642
-0.220463 -0.280613 0.408455
-0.201713 -0.437097 0.408455
-0.514018 0.539023 -0.311161
0.512265 -0.0273149 -0.367428
-0.287377 -0.573591 0.371373
0.512265 0.22741 -0.481951
-0.253622 -0.119442 0.408455
0.0687114 0.0695471 0.408455
-0.331933 0.649527 -0.470342
0.512265 0.0843054 -0.148279
0.20563 -0.602339 0.408455
0.190509 -0.659943 0.16856
-0.514018 0.281822 -0.482217
0.126153 0.649527 -0.280681
0.234188 -0.138298 0.408455
-0.161302 0.0871488 0.408455
-0.429147 -0.37911 0.408455
-0.514018 -0.035749 -0.11562
0.139832 -0.659943 -0.0981571
0.438911 -0.659943 -0.0619333
-0.00666693 0.649527 0.399683
-0.514018 -0.555079 -0.473
-0.402262 -0.646782 0.400044
0.512265 -0.333661 0.146351
0.420521 0.172692 0.371373
-0.318765 0.649527 -0.0291126
0.326997 -0.452034 -0.555671
-0.479677 -0.17196 -0.555671
0.032029 -0.338035 -0.555671
0.512265 -0.0157058 -0.228586
0.441881 -0.650912 0.371373
0.33245 -0.0202108 0.371373
0.50791 -0.659943 -0.44508
-0.514018 0.415935 -0.0413891
-0.513948 -0.321233 -0.555671
0.399687 -0.279202 -0.555671
-0.0197242 -0.454848 0.408455
0.512265 0.598895 -0.035987
-0.512104 -0.63348 -0.555671
0.512265 -0.414607 -0.318702
0.390323 0.313768 0.371373
-0.332194 -0.497294 0.408455
-0.0397367 0.143356 -0.555671
0.252153 0.290286 0.408455
0.25678 0.649527 -0.391455
0.512265 0.158671 -0.373034
-0.489006 0.0189544 0.408455
-0.0600684 0.569281 0.371373
-0.0818145 -0.659943 0.198269
0.512265 0.469936 -0.0182891
0.512265 -0.486317 -0.477516
-0.117442 -0.163871 0.408455
0.311395 -0.659943 -0.454051
-0.514018 0.170304 0.0542373
-0.433905 0.295555 0.408455
0.311833 0.561021 -0.555671
-0.31841 0.550034 -0.555671
-0.32162 0.0904682 -0.555671
0.0789619 -0.659943 -0.232763
-0.0043399 0.649527 0.289025
-0.218183 0.379551 0.408455
-0.0403088 -0.659943 -0.482127
-0.339417 0.563951 0.408455
-0.472017 0.422611 -0.555671
0.100099 0.649527 0.0204184
0.512265 0.266188 0.260099
0.310757 -0.268109 -0.555671
0.512265 0.0028393 -0.0852834
0.0864017 -0.659943 0.293131
0.169829 -0.481138 -0.555671
0.056583 -0.458621 0.371373
-0.514018 -0.284445 -0.437058
0.0234671 -0.607358 0.408455
-0.413006 -0.659943 -0.277921
0.210907 -0.0350499 0.371373
-0.315967 -0.15998 0.371373
-0.514018 -0.450739 -0.380924
0.512265 0.130121 -0.536171
-0.299277 -0.294428 0.371373
0.512265 0.419867 -0.161897
0.217369 -0.657717 -0.555671
-0.514018 -0.307821 0.0847819
0.463782 -0.659943 0.212815
-0.188011 0.216725 0.408455
-0.102496 0.649527 0.0802557
-0.444398 0.0847843 -0.555671
0.512265 -0.385937 0.0163452
-0.416853 -0.495593 0.371373
0.512265 -0.418305 0.334083
-0.141885 -0.0302631 0.408455
-0.514018 -0.570328 -0.125155
-0.386306 -0.243602 0.408455
-0.484052 0.649527 -0.328149
0.501913 0.555622 0.408455
0.356108 0.649527 -0.388562
-0.508444 0.649527 -0.481087
0.443595 0.649527 -0.23404
0.512265 -0.570793 0.0185674
-0.514018 0.490481 -0.426904
0.0832448 0.629978 0.408455
0.289166 -0.585763 -0.555671
-0.514018 -0.333363 -0.249264
-0.514018 -0.0748103 -0.482964
-0.194505 0.649527 -0.25792
-0.145754 -0.437317 -0.555671
0.480396 -0.659943 -0.28375
-0.0175415 0.498491 0.408455
-0.363896 -0.112798 0.408455
0.330765 0.20376 -0.555671
-0.514018 0.202644 -0.375658
-0.514018 0.127996 -0.102506
-0.181404 -0.0786345 -0.555671
0.111174 0.257402 0.408455
-0.458044 0.16119 -0.555671
-0.136892 0.632671 0.341162
-0.495629 0.649527 -0.0209507
0.38364 0.649527 0.0826241
-0.201487 0.00825589 -0.555671
0.226874 0.515757 0.476194
-0.215054 0.28366 -0.555671
-0.514018 0.561945 -0.124325
0.512265 -0.237656 0.133454
-0.514018 -0.032944 -0.213155
-0.514018 0.169013 0.331789
-0.0734007 -0.572016 0.371373
0.0430314 0.587322 -0.555671
0.332392 0.649527 -0.538382
0.512265 -0.469053 0.404231
-0.106012 -0.659943 -0.0989475
-0.451005 -0.224657 0.371373
0.512265 0.611537 -0.449148
0.512265 -0.326802 -0.471502
0.330066 -0.659943 0.233518
-0.31516 0.301242 0.408455
-0.514018 0.400622 -0.398143
0.155255 -0.219223 0.408455
0.512265 0.140439 -0.19724
0.461917 0.649527 -0.0718136
0.158397 0.12887 0.371373
-0.514018 -0.0124046 0.0310247
-0.217203 -0.659943 -0.157579
-0.514018 -0.287854 -0.0885307
-0.052594 -0.339188 0.408455
0.22175 0.649527 -0.125418
-0.212094 -0.613892 0.408455
-0.277834 0.649527 -0.16615
-0.146513 -0.362907 0.371373
0.215693 -0.659943 -0.25027
-0.0225196 -0.659943 -0.320234
0.512265 -0.445573 -0.244671
-0.514018 0.113938 0.00699283
-0.151684 0.556139 -0.555671
-0.0661321 0.0904923 0.408455
0.312077 0.429268 0.371373
0.459829 -0.00601975 -0.555671
-0.260953 -0.378144 -0.555671
0.512265 0.270002 -0.197179
0.300097 0.304052 -0.555671
0.512265 -0.322198 -0.0224287
-0.0665783 -0.172676 -0.555671
-0.514018 -0.506021 -0.316755
-0.215971 -0.0590212 0.371373
-0.412903 0.630388 0.408455
0.0484182 0.147955 0.408455
0.403835 0.649527 0.224698
0.332942 0.0756176 -0.555671
-0.358018 -0.258411 -0.555671
-0.324828 -0.659943 -0.430262
0.162478 0.586056 -0.555671
-0.431612 0.649527 0.0321007
-0.514018 -0.153475 0.0380596
-0.34588 0.497651 0.371373
-0.292932 0.197986 -0.555671
-0.192517 -0.659943 -0.324047
-0.460962 0.649527 0.12761
-0.0269938 0.649527 -0.115386
0.512265 -0.58426 0.308192
-0.514018 -0.487495 0.100593
-0.514018 0.279411 0.204214
0.512265 0.0147254 -0.293944
-0.514018 -0.639159 -0.413952
0.320491 0.0744906 0.371373
0.091474 -0.100973 0.371373
-0.0461418 0.649527 0.227205
0.512265 0.550271 0.233851
0.0410737 -0.587861 -0.555671
0.413569 0.224121 -0.555671
0.512265 -0.320519 -0.339945
0.512265 0.39506 -0.423642
0.0344426 -0.207325 0.408455
-0.122478 0.436688 0.408455
0.127187 -0.659943 -0.356546
-0.179311 0.649527 0.0519621
-0.17473 -0.491754 0.371373
0.0384909 0.450112 -0.555671
-0.171502 0.0760858 -0.555671
-0.133483 -0.659943 -0.0288799
-0.337723 -0.659943 0.20144
-0.455819 -0.26948 -0.555671
-0.514018 0.359046 0.205542
0.417041 0.36309 -0.555671
-0.514018 0.51468 0.306685
0.221372 0.541708 0.408455
0.14655 0.199637 -0.555671
0.032456 0.649527 -0.382448
-0.480283 -0.309127 0.408455
-0.337852 0.649527 -0.3015
0.512265 -0.0713659 -0.0407958
-0.514018 0.059086 0.287596
0.117593 0.366238 0.408455
0.339528 -0.602388 0.408455
-0.514018 -0.0614636 0.4045
-0.514018 0.431711 -0.169649
-0.266263 -0.659943 0.036272
-0.320491 -0.646782 0.407394
0.290163 -0.182313 -0.555671
0.512265 -0.117503 -0.497331
0.145619 -0.659943 -0.268843
0.0531617 0.155215 -0.555671
-0.281185 0.477948 0.408455
0.512265 -0.527844 -0.203333
0.034708 -0.659943 -0.023747
-0.378122 0.649527 0.165609
-0.243066 -0.659943 -0.0366293
0.512265 -0.449827 -0.0964579
-0.460773 0.488587 0.408455
0.512265 0.110422 -0.308955
-0.221493 0.48036 -0.555671
-0.0876648 -0.312106 -0.555671
0.254459 -0.258404 0.408455
-0.028892 0.649527 -0.259524
-0.445157 -0.659943 0.204818
0.287419 -0.0443109 -0.555671
-0.270264 0.647368 0.371373
0.17238 -0.148 -0.555671
0.166799 -0.137294 0.371373
-0.435843 -0.659943 -0.513302
0.36751 -0.388002 0.371373
-0.285626 -0.0123335 0.408455
-0.405137 0.01934 0.371373
-0.514018 0.310225 -0.0840968
0.17464 -0.380692 0.371373
0.471351 0.269456 0.408455
0.512265 0.356893 -0.309459
-0.514018 -0.264329 0.0123738
0.055458 0.239688 0.371373
-0.514018 0.500218 0.229209
-0.263485 -0.498753 -0.555671
0.4319 -0.659943 -0.343706
-0.366358 0.649527 -0.226938
-0.514018 -0.365906 -0.354534
0.512265 -0.196724 -0.393816
0.288506 -0.368287 0.408455
0.369288 -0.659943 -0.0625391
0.101014 0.563424 0.408455
0.139902 -0.085605 -0.555671
0.512265 -0.0888033 -0.22678
0.450559 0.0450556 0.408455
0.0612236 0.649527 0.238376
-0.166741 0.144699 0.371373
0.450517 -0.404013 0.371373
0.425788 0.482495 0.408455
0.333955 0.649527 -0.235993
-0.127391 -0.646782 0.401878
-0.514018 -0.193434 0.362737
0.497323 -0.0869916 0.408455
0.294467 0.544805 0.408455
-0.514018 0.130871 -0.407671
0.511186 0.649527 0.0398751
-0.514018 -0.204892 0.273846
-0.514018 -0.138266 -0.0447393
-0.106309 -0.659943 0.039502
-0.514018 0.510736 -0.0499568
0.473523 -0.225051 0.408455
0.0291395 -0.336766 0.408455
-0.295828 0.160543 0.371373
-0.464316 0.579973 0.408455
-0.21362 0.541992 0.408455
0.512265 -0.215676 -0.097482
0.260417 -0.659943 0.245734
0.512265 -0.513449 0.185746
-0.0187954 -0.0589827 0.371373
-0.514018 0.143385 0.184157
-0.0732959 0.233822 -0.555671
0.512265 -0.149159 0.22751
-0.514018 -0.584632 0.237653
0.512265 0.170989 0.387762
0.133624 -0.322829 -0.555671
0.431248 0.54913 -0.555671
0.512265 -0.151083 0.0888388
-0.475112 -0.428619 0.408455
-0.16679 0.291888 0.408455
0.264897 0.189921 0.408455
0.512265 0.429113 -0.244714
-0.514018 -0.417154 0.0486168
-0.514018 0.0875642 -0.355387
-0.514018 -0.633985 0.316269
0.512265 0.0877296 -0.425721
0.0672306 0.0333657 -0.555671
0.34571 -0.659943 -0.237584
-0.514018 0.480523 0.100706
0.512265 0.409988 0.386158
-0.514018 0.538494 -0.379869
0.36988 -0.0759729 0.371373
0.304189 0.310869 0.371373
0.170634 0.466478 0.408455
-0.368368 0.41254 0.371373
0.198795 0.649527 0.259499
-0.00626306 0.385082 -0.555671
0.512265 -0.442932 -0.0188276
-0.0534392 -0.451149 -0.555671
-0.357711 0.495857 -0.555671
-0.0417127 0.1552 0.371373
0.512265 -0.149258 -0.34664
0.316981 0.156128 0.371373
-0.514018 0.366571 0.313624
0.448 -0.659943 -0.208411
0.440933 0.649527 -0.167312
0.512265 -0.0577403 0.0542257
-0.101589 -0.249586 0.371373
-0.0466447 0.649527 -0.495047
-0.514018 -0.0495323 -0.0429286
0.512265 -0.461985 0.13117
-0.514018 -0.383045 0.178012
0.512265 0.184131 0.0862243
-0.341534 -0.659943 -0.267241
-0.514018 0.272729 0.130335
0.264376 -0.0600808 0.408455
-0.514018 0.236361 0.337753
-0.0535969 0.371628 0.408455
0.396686 0.649527 -0.51748
-0.514018 0.608076 -0.174013
-0.139338 0.606931 0.408455
0.0271404 0.274592 -0.555671
0.314804 0.649527 -0.142238
-0.514018 -0.625073 -0.164194
0.220602 0.649527 0.129692
-0.390912 -0.659943 0.0763709
-1.75927e-05 -0.207466 -0.555671
0.278936 -0.339473 -0.555671
0.512265 0.598527 -0.342192
-0.446789 0.649527 -0.382909
0.112035 0.649527 -0.355706
0.27055 -0.589613 0.371373
0.512265 0.398025 0.00146182
-0.376187 0.0980964 0.371373
0.246996 -0.659943 -0.358746
0.512265 0.112166 0.214586
-0.514018 -0.063354 -0.306207
0.512265 0.251955 -0.113718
-0.213194 0.0702817 0.371373
-0.233633 0.649527 0.236257
-0.238012 -0.198001 0.371373
-0.292143 0.649527 -0.384216
-0.327446 0.649527 0.244276
-0.341156 -0.348831 -0.555671
0.512265 -0.221131 0.241606
-0.468358 -0.00101376 -0.555671
-0.514018 -0.222134 -0.460587
0.22137 0.0485548 0.371373
0.444722 -0.659943 0.0992758
-0.241632 0.417924 -0.555671
0.25142 -0.659943 0.00580913
0.336831 -0.516805 -0.555671
-0.369299 -0.0447224 0.371373
-0.514018 0.551734 -0.546973
0.512265 0.299574 0.361025
0.170486 -0.659943 -0.405582
-0.178574 0.649527 -0.421346
0.430125 -0.527242 -0.555671
-0.314438 -0.1711 -0.555671
0.215443 -0.0124027 -0.555671
0.0750675 -0.592678 0.371373
0.29417 -0.659943 -0.152891
0.367085 -0.659943 -0.521267
-0.0886177 0.501127 0.408455
0.470206 -0.474946 -0.555671
0.356422 0.464205 0.408455
-0.455198 0.58912 -0.555671
-0.514018 0.498878 -0.260042
-0.199114 0.649527 -0.499562
-0.514018 0.299779 0.361864
-0.331922 -0.659943 0.276489
-0.514018 0.168274 0.119186
-0.212503 -0.659943 0.225622
0.512265 0.049075 -0.00798764
-0.287554 -0.659943 -0.367831
-0.341897 0.649527 0.0508736
-0.514018 0.24065 -0.21213
-0.514018 0.348064 0.0722054
-0.237547 0.649527 -0.0356168
0.50187 0.649527 -0.198547
0.512265 -0.583017 -0.281072
0.209369 0.0802389 -0.555671
-0.514018 -0.575884 0.388379
0.211427 0.414598 0.408455
-0.514018 0.550334 0.0769844
-0.451755 0.33954 -0.555671
0.457305 -0.4962 0.371373
-0.514018 -0.480116 -0.549018
0.453404 -0.296788 0.371373
0.103874 0.649527 -0.0631795
0.276285 0.645083 0.408455
-0.514018 -0.34825 0.312938
-0.499294 0.180556 0.408455
-0.0266572 -0.659943 0.248989
0.512265 0.151795 -0.100949
-0.0810308 0.649527 -0.400922
-0.505135 0.0538945 -0.555671
0.512265 -0.629995 0.243809
0.316304 -0.659943 0.00190414
0.264311 -0.488282 0.371373
0.512265 0.473994 -0.291674
-0.164472 0.229986 -0.555671
-0.514018 -0.0280313 0.166036
0.512265 -0.475316 0.273647
0.455017 -0.659943 -0.409311
0.512265 0.139657 -0.024122
-0.514018 -0.176272 0.139421
0.512265 0.278485 -0.430808
0.234359 -0.659943 0.120351
0.512265 0.0586101 0.382526
-0.244659 0.505161 0.452871
-0.196019 -0.659943 0.100951
-0.514018 -0.480849 -0.0546013
0.00393162 0.451591 0.371373
-0.379388 0.319392 -0.555671
-0.0769883 -0.0939843 -0.555671
0.512265 -0.186401 -0.0226633
-0.514018 -0.0801096 -0.163856
0.512265 -0.34888 -0.54949
0.512265 0.361211 0.0994931
-0.155292 -0.659943 -0.25191
-0.514018 -0.233118 -0.12047
-0.141795 -0.659943 -0.511331
-0.167287 0.0145869 0.371373
-0.406813 0.442126 -0.555671
0.512265 -0.320254 -0.0856257
-0.0453792 -0.127157 0.408455
-0.174732 0.151061 -0.555671
0.0327887 -0.659943 0.108888
0.349507 -0.490448 0.371373
0.512265 0.465115 -0.11787
-0.425433 -0.126837 0.408455
0.161674 -0.489114 0.408455
0.512265 -0.31212 -0.210936
-0.401555 0.201515 0.408455
-0.416298 -0.659943 -0.353489
0.154234 -0.659943 0.0187318
0.217499 0.632671 0.354999
-0.039177 0.649527 0.0926563
0.512265 0.277726 -0.528291
0.512265 0.199551 0.166111
-0.437829 0.649527 -0.0939319
0.503684 0.645255 0.340746
0.354117 -0.15275 0.408455
0.191638 -0.376015 -0.555671
0.239593 -0.145626 -0.555671
-0.230596 -0.659943 0.311713
-0.514018 -0.514325 -0.191991
-0.514018 -0.50248 0.255948
0.451819 -0.245068 -0.555671
0.195979 0.273319 0.371373
-0.300669 0.649527 0.113055
-0.0488313 0.649527 0.335475
0.368393 0.573677 0.371373
0.512265 0.456817 -0.548682
0.107446 0.492872 0.408455
0.512265 0.0181833 -0.17648
-0.0569817 -0.659943 -0.233859
0.512265 0.249393 0.092439
-0.475181 0.649527 0.248545
0.0084299 0.298204 0.408455
0.312661 0.632671 0.359886
0.290394 0.114283 0.408455
-0.400761 -0.40554 -0.555671
0.512265 -0.42654 -0.445979
-0.0232446 0.0490019 0.371373
0.0341493 0.649527 -0.00630968
0.43287 0.122929 -0.555671
0.1347 -0.59376 0.408455
-0.514018 -0.306443 -0.495837
-0.356932 -0.0353557 -0.555671
-0.228106 -0.556939 0.371373
-0.514018 0.422522 -0.307608
0.223982 -0.659943 -0.189284
0.0927721 -0.659943 -0.157318
-0.514018 0.365003 -0.191281
0.425534 -0.153946 -0.555671
-0.226192 -0.271114 -0.555671
0.512265 0.586362 0.0381336
0.109915 0.114831 0.408455
0.512265 0.440748 0.151418
0.512265 -0.292051 -0.421114
-0.422818 0.402298 0.408455
-0.129374 0.649527 0.157411
0.512265 0.179425 0.327195
-0.514018 -0.287198 0.359619
-0.288153 0.604167 -0.555671
-0.375068 -0.659943 -0.547758
0.17701 0.000101678 0.408455
-0.459242 -0.351152 -0.555671
0.512265 0.314459 0.195221
0.512265 0.574867 0.175622
-0.514018 -0.544165 0.0782143
-0.0601145 0.648372 -0.555671
0.0353138 0.649527 -0.2423
0.0276519 -0.0127883 -0.555671
-0.0866917 0.320636 0.408455
0.273989 -0.184227 0.408455
-0.514018 0.321372 -0.145656
0.12929 0.649527 0.3742
0.473519 -0.573613 -0.555671
-0.514018 -0.600147 0.122328
-0.0558922 0.232094 0.371373
-0.0953267 -0.403713 -0.555671
-0.268639 0.346054 0.408455
-0.218518 0.649527 0.177619
0.512265 0.0149033 -0.412666
0.244049 -0.386028 0.371373
-0.108013 0.649527 -0.173942
-0.275683 -0.585984 -0.555671
0.0654844 0.649527 0.115289
0.376508 -0.659943 -0.437286
-0.0927535 -0.121935 0.371373
-0.351091 0.649527 -0.080088
-0.380332 -0.488721 -0.555671
-0.514018 -0.260996 0.137805
-0.466719 0.649527 -0.527994
-0.262972 0.320255 -0.555671
-0.0755142 -0.659943 -0.351321
-0.0723958 -0.570307 -0.555671
0.51084 -0.659943 -0.00752897
0.356956 -0.659943 0.0821193
0.252949 -0.659943 -0.492693
-0.514018 -0.37245 -0.524089
0.271037 0.649527 -0.00804822
-0.514018 0.07363 -0.0768369
0.512265 -0.591751 0.169035
-0.363274 -0.659943 -0.112752
-0.432309 -0.597953 0.371373
-0.105634 -0.38657 0.408455
-0.0660734 -0.463803 0.371373
-0.0490015 0.00141039 0.408455
0.423315 -0.607492 0.408455
-0.436283 -0.0636223 -0.555671
0.459223 0.433791 0.371373
0.316024 -0.260839 0.408455
0.512265 0.630108 0.272415
-0.514018 0.604195 0.131075
0.512265 0.523829 -0.142772
0.351581 0.649527 0.256842
0.0580475 -0.41168 0.408455
-0.160097 -0.594356 -0.555671
0.444082 0.649527 0.0609722
0.512265 -0.237159 -0.205106
0.434737 0.0972233 0.371373
0.0603668 0.649527 -0.554748
0.512265 0.2837 0.036899
0.361563 -0.249569 0.371373
-0.195222 -0.158952 -0.555671
0.120038 -0.659943 0.0852396
-0.514018 0.425222 0.0303843
0.512265 0.537475 0.352733
0.512265 -0.407643 -0.138605
0.178224 0.149347 -0.555671
-0.297128 0.258456 0.371373
-0.328579 0.442138 0.408455
-0.294773 -0.250099 -0.555671
-0.183751 -0.174523 0.408455
0.15163 -0.659943 -0.547974
-0.420884 0.243531 0.371373
0.512265 -0.580851 0.367333
0.512265 0.496263 0.104815
-0.514018 -0.110784 0.357323
-0.514018 -8.77534e-05 0.285551
0.512265 -0.621124 0.0786114
0.512265 0.0676287 0.0622193
-0.220949 0.649527 -0.149874
0.512265 -0.383589 0.207328
0.512265 0.35489 -0.088247
-0.233254 0.649527 0.0867204
0.0857872 -0.243607 0.371373
-0.348124 -0.192746 0.408455
-0.341285 0.0348321 -0.555671
0.354073 0.270878 0.408455
0.261028 0.5134 0.371373
0.512265 -0.000509888 0.162373
-0.478452 0.649527 -0.221829
-0.514018 0.124347 -0.47692
0.512265 0.199694 -0.219787
0.370021 0.202917 0.371373
-0.451279 -0.659943 0.263709
0.512265 -0.0844002 -0.381525
-0.168051 0.649527 0.270635
0.333024 0.649527 0.129057
-0.306017 0.594971 0.371373
-0.282403 0.140183 -0.555671
0.512265 -0.596944 -0.506672
0.138032 0.649527 -0.468042
0.148177 -0.659943 0.342294
-0.313175 -0.659943 -0.215842
-0.00400912 -0.154961 0.371373
-0.514018 -0.0671542 0.305786
-0.0322661 0.0315521 -0.555671
-0.514018 -0.318604 -0.389449
0.507465 0.346692 -0.555671
0.512265 0.513383 -0.358076
0.250271 0.586981 -0.555671
0.478242 0.600855 -0.555671
0.214405 -0.283149 0.371373
-0.514018 0.0070491 -0.368213
0.0744242 -0.0977469 -0.555671
-0.514018 -0.339921 0.22125
0.0179399 0.649527 -0.497109
-0.514018 -0.15073 0.209761
0.512265 0.227355 -0.316726
0.512265 -0.0173308 -0.533245
0.452332 0.649527 -0.358418
-0.514018 -0.416612 -0.11333
-0.514018 -0.0193252 -0.454699
0.512265 -0.11628 -0.138338
-0.343686 -0.28998 0.408455
-0.375597 0.60597 0.371373
-0.514018 -0.6577 -0.278906
-0.0618675 -0.291705 0.371373
-0.514018 -0.176109 -0.0905298
0.100356 0.0383774 0.371373
-0.185455 -0.540806 0.408455
-0.514018 0.182163 -0.277
-0.514018 0.311342 -0.322597
-0.192721 0.59874 -0.555671
-0.514018 -0.15541 -0.512319
0.168806 -0.646782 0.407657
0.512265 0.0774542 0.141451
-0.454694 -0.659943 -0.0929549
-0.419948 -0.445476 0.408455
0.511419 -0.20242 0.371373
-0.488546 0.500791 -0.555671
0.0804504 0.389987 0.371373
-0.238207 -0.659943 -0.0980032
-0.514018 -0.183342 -0.321248
-0.0664686 -0.659943 0.0816202
-0.0912572 -0.0304939 0.371373
0.512265 -0.0982681 0.25687
0.143995 0.28579 -0.555671
-0.514018 0.617227 0.350885
-0.175532 -0.659943 -0.416234
-0.370639 0.573922 -0.555671
-0.170743 0.649527 -0.310135
-0.350024 0.405826 -0.555671
0.385436 0.357246 0.408455
0.505905 0.649527 -0.316747
0.462584 -0.659943 -0.514689
-0.117249 0.524854 0.470755
0.0913346 0.649527 0.287092
-0.102712 0.397804 0.371373
0.394829 -0.296138 0.371373
0.250024 -0.659943 -0.0585764
-0.11921 0.198934 0.371373
0.0931096 -0.455862 -0.555671
-0.153441 0.48477 0.408455
0.512265 0.543136 -0.0234912
-0.169325 0.393358 0.371373
0.426949 0.38179 0.371373
0.021367 -0.659943 -0.356781
0.0285712 -0.491807 0.408455
0.512265 -0.505508 -0.420844
0.467641 0.649527 -0.459873
0.100681 0.649527 0.178456
-0.223873 0.190156 0.371373
0.200838 0.30329 -0.555671
-0.3573 0.189485 0.371373
-0.326992 0.370086 0.408455
-0.337722 -0.659943 0.132397
0.512265 0.343505 -0.0246326
0.512265 0.0120253 0.33015
-0.377965 0.215838 -0.555671
0.407235 0.436696 -0.555671
0.28664 -0.659943 -0.399288
-0.0194069 -0.608644 0.371373
-0.0635474 0.501428 -0.555671
0.114666 -0.13699 0.408455
-0.490615 0.397385 0.408455
-0.378221 0.0922519 -0.555671
-0.514018 -0.248546 -0.332218
-0.20662 0.632671 0.353144
0.160357 -0.548997 0.371373
-0.0352624 0.275722 -0.555671
-0.354574 0.649527 -0.415691
0.512265 0.3685 0.34784
0.455015 -0.0272438 0.371373
0.471666 0.503026 0.371373
0.512265 0.0676787 0.249235
0.435132 -0.659943 0.010017
-0.514018 0.388758 -0.539373
-0.278032 0.649527 -0.48984
-0.514018 -0.0788769 0.0692514
0.37308 -0.00823812 0.408455
-0.514018 -0.102374 -0.39946
0.149198 0.649527 0.055296
0.452554 -0.659943 0.316886
-0.186093 -0.305266 0.371373
-0.514018 0.205426 0.0103161
0.228224 -0.0964536 0.371373
0.479525 0.0887883 -0.555671
-0.514018 0.297391 0.0236609
0.0333839 -0.653438 -0.555671
0.0557503 -0.0570788 0.408455
-0.145784 -0.185591 -0.555671
0.452176 -0.573853 0.371373
0.232676 0.409737 -0.555671
0.308689 0.12616 -0.555671
0.512265 0.285362 -0.335598
-0.514018 0.123617 -0.170488
0.0574504 -0.524092 0.371373
-0.514018 0.505553 0.405645
0.512265 -0.329723 0.358069
0.165659 0.21103 0.371373
0.275242 -0.434899 0.408455
-0.375767 -0.533224 0.408455
-0.378454 0.527482 0.425001
0.279907 0.649527 -0.519188
0.34653 -0.659943 -0.310089
0.0357619 -0.289033 0.371373
0.492293 0.649527 0.137411
-0.514018 0.55145 0.201387
-0.380243 -0.380781 0.371373
0.407787 -0.659943 -0.110464
-0.514018 -0.417867 -0.491789
0.463135 0.187186 0.408455
0.512265 -0.612986 -0.335318
-0.49966 0.263655 -0.555671
0.512265 0.386795 -0.51421
-0.369357 -0.659943 -0.0151014
0.340061 -0.659943 0.171857
-0.428736 -0.122728 -0.555671
-0.304652 0.0243951 0.371373
0.512265 -0.615244 -0.171611
0.111168 0.649527 -0.215343
-0.514018 0.383005 0.258893
0.512265 -0.410274 0.15659
-0.263918 0.596739 0.408455
0.255588 -0.262716 -0.555671
-0.00204941 0.594749 0.371373
0.512265 -0.292219 0.296082
0.422112 -0.544757 0.408455
-0.0159587 0.649527 -0.0612246
-0.450954 -0.0914091 0.371373
0.210097 0.649527 -0.071402
0.137958 -0.026989 -0.555671
0.0759012 0.649527 -0.12397
0.398329 -0.659943 0.215525
0.512265 0.540622 -0.468475
0.163805 -0.445402 0.371373
0.0700913 0.497657 -0.555671
-0.514018 -0.151147 -0.255124
-0.0438176 -0.544014 0.408455
-0.241829 -0.056947 -0.555671
0.109912 -0.576145 -0.555671
0.0560436 0.588734 0.371373
-0.351928 0.329523 0.371373
-0.514018 -0.348714 -0.18272
-0.514018 0.0218671 -0.209835
-0.425862 0.143748 0.408455
0.380188 0.0860353 0.371373
0.202845 0.0844968 0.408455
-0.514018 -0.520443 0.342003
-0.439317 -0.263328 0.408455
-0.00058781 -0.659943 -0.270023
-0.141891 -0.248432 0.408455
0.381334 -0.441259 0.371373
-0.0386232 0.0878671 -0.555671
-0.2332 0.649527 -0.219236
0.0341349 -0.659943 -0.149377
0.404492 0.591382 0.408455
-0.13798 -0.659943 0.182779
0.197096 0.496663 0.371373
-0.000566656 0.361044 0.371373
0.182657 0.644022 -0.555671
-0.188439 -0.659943 -0.0369005
-0.0346326 -0.325011 -0.555671
-0.514018 0.196335 -0.137696
-0.0256947 0.570733 -0.555671
-0.0124239 0.649527 0.159869
0.340903 -0.551836 0.371373
-0.280248 -0.428998 -0.555671
0.121563 0.454176 0.371373
0.386758 0.517939 -0.555671
0.512265 -0.507823 -0.338539
-0.514018 0.373964 -0.334947
0.28312 0.649527 0.150426
-0.237409 0.649527 -0.292049
-0.183099 0.649527 -0.0211103
0.305854 0.649527 -0.364829
-0.514018 0.100248 -0.287498
-0.275564 -0.396347 0.408455
-0.466933 -0.0137239 0.371373
-0.514018 0.594886 -0.307439
0.123931 0.07105 -0.555671
-0.0969912 -0.257249 -0.555671
-0.0580413 -0.659943 -0.536559
-0.514018 -0.278024 -0.274654
0.512265 -0.222088 -0.53696
-0.107402 0.441635 -0.555671
0.164571 0.649527 0.191835
0.132304 0.290469 0.371373
0.512265 0.160933 0.271613
0.0956434 -0.659943 0.240002
-0.466813 -0.515795 0.371373
-0.472892 0.263484 0.371373
-0.318268 -0.659943 -0.501996
0.493856 -0.659943 0.352834
0.512265 0.576259 -0.109273
-0.226748 -0.327419 -0.555671
-0.178453 -0.659943 -0.472099
-0.166558 -0.077923 0.408455
-0.514018 0.0241691 0.147712
0.270306 0.649527 -0.260335
-0.514018 -0.608434 -0.0754974
-0.514018 0.00882034 -0.0859219
0.439919 -0.20605 0.371373
-0.514018 -0.379837 -0.0409632
-0.514018 -0.609076 -0.483442
-0.514018 0.348634 -0.421562
-0.103134 0.649527 -0.503317
-0.294202 -0.535725 0.408455
0.512265 0.308515 0.108166
0.512265 0.633647 -0.0797764
0.512265 0.270415 -0.0177775
-0.0391174 -0.404604 0.408455
-0.416326 -0.224932 -0.555671
-0.211369 -0.382515 0.408455
-0.455666 0.112301 0.371373
0.041315 -0.659943 0.179792
0.512265 0.265219 0.320221
0.192735 -0.536032 -0.555671
-0.514018 0.247634 -0.347292
0.512265 -0.446653 0.0726736
-0.325457 0.317922 -0.555671
0.251341 0.239064 0.371373
0.367522 -0.524605 0.408455
-0.323053 -0.593707 0.408455
-0.33659 -0.60306 -0.555671
-0.514018 -0.286877 0.217173
-0.514018 0.427705 -0.481034
-0.438839 -0.659943 -0.21322
-0.316098 0.649527 -0.120015
-0.318008 -0.244753 0.371373
0.313671 -0.474041 0.408455
-0.22029 0.489364 0.408455
0.373184 -0.145365 -0.555671
0.496884 -0.410773 -0.555671
0.168474 -0.428138 -0.555671
0.512265 0.549423 0.12059
0.0825909 0.2113 0.408455
0.511173 0.649527 -0.0205171
0.406068 -0.510669 0.371373
0.1997 0.170239 0.408455
-0.514018 0.0682557 0.219839
-0.0868907 0.649527 -0.30513
-0.454808 -0.646782 0.394637
0.139148 0.471338 -0.555671
-0.514018 0.358425 -0.0448287
0.074229 -0.209587 -0.555671
0.347054 -0.391967 -0.555671
0.381606 0.649527 -0.124638
0.512265 0.24255 0.209363
-0.270126 0.0444142 0.408455
0.512265 0.00275372 0.0588884
-0.0992114 -0.599052 0.408455
-0.190064 0.428511 -0.555671
0.4259 0.302373 0.408455
-0.191043 0.253925 0.371373
-0.297456 -0.659943 -0.00608756
0.439374 0.22623 0.371373
-0.490923 0.649527 -0.276035
-0.448347 -0.187507 0.408455
-0.324793 -0.0850762 -0.555671
0.124411 0.592382 0.371373
-0.081477 0.0131638 -0.555671
0.512265 0.529385 -0.249165
0.068473 0.42769 0.408455
-0.0169722 0.523744 0.4722
-0.514018 0.264791 -0.417959
0.345522 -0.339118 0.408455
0.512265 0.44597 -0.40556
-0.00698617 -0.659943 -0.0556244
0.0128137 0.15839 0.371373
0.512265 -0.203664 0.300214
0.266327 0.428188 0.408455
0.512265 -0.0352172 -0.309852
-0.431246 0.449486 0.371373
-0.118435 -0.659943 0.31126
0.184254 0.389803 -0.555671
0.130967 -0.332852 0.408455
0.036359 0.507834 0.371373
0.103751 -0.481251 0.371373
-0.258148 -0.659943 -0.190107
0.512265 0.497372 0.236543
-0.0809337 0.259129 0.408455
-0.271817 -0.0689206 0.408455
-0.324461 0.649527 -0.195701
0.145873 0.340902 0.371373
0.342221 0.044921 0.408455
-0.339367 -0.334595 0.371373
0.512265 -0.127591 0.341559
-0.514018 0.467 -0.00658854
-0.514018 -0.443768 0.149807
0.272423 0.649527 0.201431
-0.00165901 -0.241111 0.371373
-0.233193 0.572885 0.371373
-0.201267 -0.376212 -0.555671
0.244689 -0.539111 0.408455
-0.479053 -0.464922 0.371373
-0.0718035 -0.372864 0.371373
-0.514018 -0.58101 0.00134258
0.0562176 -0.368297 0.371373
0.435634 -0.167395 0.408455
-0.387459 0.649527 0.289958
0.377839 0.649527 -0.335501
-0.102443 0.0889306 0.371373
0.512265 -0.570491 -0.0851209
-0.118073 0.476799 0.371373
0.437631 -0.0905514 0.371373
-0.514018 0.587986 -0.0651854
0.512265 -0.283223 0.158077
-0.514018 -0.353139 0.135771
-0.302747 0.110267 0.408455
0.210197 -0.659943 0.274875
0.0603784 -0.402326 -0.555671
-0.330978 0.234141 0.408455
0.247664 0.190209 -0.555671
-0.46372 -0.567694 -0.555671
-0.222387 0.436575 0.408455
-0.514018 -0.104658 0.270199
0.512265 -0.127673 -0.0285472
0.512265 -0.180771 -0.505717
-0.514018 -0.416174 -0.419299
-0.162334 -0.659943 -0.169314
0.512265 -0.0170481 0.211582
-0.195815 -0.219971 -0.555671
0.0322108 -0.0299795 0.371373
-0.514018 0.0640805 0.407929
0.260654 0.0852257 -0.555671
-0.264531 0.273123 0.408455
0.0481557 -0.500145 -0.555671
0.512265 -0.136388 -0.250554
0.512265 0.189871 -0.421048
0.487071 0.0376187 -0.555671
0.512265 -0.453912 -0.528089
-0.297868 -0.659943 0.168934
-0.469216 0.0485798 0.371373
0.512265 0.220782 0.284228
-0.296712 -0.659943 0.32643
-0.514018 0.50631 0.176904
-0.136207 0.325258 0.371373
-0.131514 0.649527 -0.062142
-0.466773 -0.659943 -0.0358197
0.512265 -0.533177 0.276657
-0.0351595 -0.659943 0.347049
-0.514018 -0.0511881 0.257057
0.0637526 0.0185112 0.408455
0.293209 0.370962 -0.555671
0.35694 -0.206909 0.408455
0.506295 -0.659943 -0.195902
0.512265 -0.567311 -0.0340638
0.170228 0.564156 0.408455
-0.282235 -0.496682 0.371373
0.124751 -0.201904 -0.555671
0.440031 -0.659943 0.167627
0.296629 -0.149919 0.371373
-0.183772 0.648957 -0.555671
-0.514018 -0.601723 -0.379418
0.512265 -0.593221 -0.396419
-0.199874 -0.503316 -0.555671
0.0168735 -0.659943 0.280044
-0.409977 -0.659943 0.0155711
-0.514018 0.0421814 0.0700937
-0.171116 0.578193 0.371373
0.327636 -0.400808 0.408455
-0.508115 -0.659943 0.0340142
-0.514018 -0.0411079 -0.534959
-0.224722 -0.110097 -0.555671
0.476956 0.25355 -0.555671
0.512265 -0.412574 0.261215
-0.134044 -0.0640079 0.371373
0.00740005 0.649527 0.11272
0.0820793 0.0996888 -0.555671
-0.0698236 -0.218835 0.408455
0.512265 0.378492 0.221325
0.512265 0.105391 -0.477968
-0.514018 0.0318079 -0.464296
0.322382 -0.659943 0.119054
0.177928 0.649527 -0.347331
-0.322595 -0.659943 0.078772
0.397782 0.649527 -0.255451
0.394554 0.510141 0.371373
0.512265 -0.178387 -0.148189
-0.09374 0.61064 -0.555671
-0.353037 -0.138502 -0.555671
0.127253 -0.00865641 0.408455
-0.514018 -0.386972 -0.238259
-0.33308 -0.435652 0.408455
-0.131955 -0.518571 0.371373
-0.362342 0.649527 0.00473408
0.458922 -0.311593 -0.555671
-0.338416 -0.0302256 0.408455
-0.412094 0.34011 0.371373
0.16547 0.649527 -0.249222
-0.446589 0.632671 0.366817
0.306183 0.593759 0.408455
0.512265 -0.64606 -0.114164
-0.00176382 0.315747 -0.555671
-0.514018 -0.529398 0.213475
0.512265 -0.0672465 -0.49827
0.17526 -0.659943 -0.133783
0.203003 -0.659943 0.217211
-0.251239 0.11295 0.371373
0.198559 0.383278 0.371373
0.512265 0.172383 0.0354287
-0.514018 -0.316589 -0.0473846
-0.341395 0.632671 0.346199
-0.232262 0.140786 -0.555671
-0.101134 0.598054 0.371373
0.278009 0.36936 0.408455
0.406227 0.142269 0.408455
0.512265 -0.0771095 -0.448677
-0.514018 0.472627 -0.198396
-0.311937 -0.48641 -0.555671
-0.505545 -0.659943 0.174291
0.0247287 0.649527 -0.155394
0.260074 -0.462732 -0.555671
0.452383 0.577134 0.408455
0.512265 0.468393 0.341616
-0.156484 -0.659943 0.0447945
0.335708 0.649527 -0.0822573
-0.514018 0.0261278 0.340259
-0.514018 0.595366 0.0537901
-0.514018 -0.449726 -0.17284
0.0219574 -0.0754267 -0.555671
0.512265 -0.359176 0.058299
-0.108682 0.649527 0.214833
-0.123923 -0.103576 0.408455
-0.514018 0.210445 -0.0784081
-0.10509 -0.332451 0.371373
0.511634 0.598678 0.371373
0.512265 -0.374126 -0.456255
-0.492268 0.113733 0.408455
0.512265 -0.229519 -0.289155
-0.514018 0.125326 0.308188
-0.276795 0.31408 0.371373
0.17377 -0.610822 0.371373
-0.514018 -0.156486 -0.401101
0.0531223 0.346955 0.408455
-0.138812 -0.463098 0.408455
0.453877 -0.0765344 -0.555671
-0.514018 0.111752 0.124763
0.0753569 0.542869 0.371373
0.266815 0.645718 0.337662
-0.514018 0.613253 0.249124
0.512265 -0.270158 -0.099261
-0.183633 -0.303107 -0.555671
-0.0725526 -0.659943 0.132785
0.273139 -0.285315 0.371373
-0.514018 -0.241293 0.341169
-0.514018 -0.135051 -0.156494
0.461964 -0.144227 0.371373
0.115907 -0.659943 -0.308345
-0.423393 0.649527 -0.217057
-0.0850089 0.298919 -0.555671
-0.260002 -0.601914 0.408455
0.412693 -0.214956 -0.555671
0.286063 -0.0033254 0.371373
0.512265 -0.427269 -0.189663
-0.514018 -0.619151 -0.248092
0.275979 -0.338233 0.371373
0.470895 -0.659943 0.261629
-0.514018 0.434532 0.32475
0.45138 0.649527 0.21162
-0.514018 -0.370061 0.0631588
0.216769 -0.646782 0.390148
-0.25522 0.0390505 -0.555671
-0.372092 0.270706 -0.555671
-0.386449 -0.659943 -0.392634
0.339718 0.649527 0.0604039
0.210732 0.572245 0.371373
-0.399685 0.649527 -0.309767
-0.514018 -0.0236984 -0.277132
-0.252625 -0.244929 0.371373
0.188006 -0.301663 0.408455
-0.076347 0.380831 -0.555671
0.0725539 0.208079 -0.555671
0.286607 0.649527 0.0384452
0.350465 0.649527 -0.460542
-0.514018 -0.57549 -0.428445
0.288813 -0.659943 0.358978
0.048724 -0.646782 0.394013
-0.439222 0.649527 0.171517
0.0449892 -0.159504 0.408455
0.512265 0.476753 0.0353624
-0.296761 0.445026 0.371373
0.408056 0.527482 0.429181
-0.00808911 -0.335032 0.371373
-0.270115 -0.281536 0.408455
-0.172286 -0.333999 0.408455
-0.409314 -0.659943 0.298838
-0.238938 -0.41752 0.371373
0.351227 -0.0822635 -0.555671
0.0448883 0.048526 0.371373
0.347325 -0.631489 -0.555671
0.512265 0.104524 -0.368026
-0.311108 0.188251 0.408455
-0.438335 -0.156836 0.371373
-0.0475716 0.186253 0.408455
0.049249 0.381213 -0.555671
0.167323 0.528198 -0.555671
-0.514018 0.597844 0.18665
-0.448219 -0.319477 0.371373
0.469985 0.0190641 0.371373
0.512265 0.493108 -0.516279
0.422867 -0.389042 0.408455
0.512265 0.0108252 -0.492239
-0.134477 -0.55311 -0.555671
-0.147225 -0.411624 0.408455
0.12201 0.649527 -0.419645
-0.268014 -0.659943 -0.42625
0.090898 0.139687 0.371373
0.0528338 0.649527 -0.433595
-0.3631 0.519601 0.475091
-0.514018 -0.505639 -0.507831
-0.514018 -0.587049 0.34125
-0.474584 -0.358163 0.408455
-0.324645 -0.529163 0.371373
0.46073 0.326735 0.371373
-0.240612 -0.659943 0.077319
-0.457288 -0.659943 0.109102
0.26715 0.511085 -0.555671
0.193231 -0.163968 0.408455
-0.423311 0.649527 -0.425301
-0.484121 0.325905 0.408455
-0.22613 -0.133725 0.371373
0.512265 -0.0403944 -0.180336
0.336709 -0.659943 -0.116891
-0.464655 0.230384 -0.555671
-0.354278 -0.620195 0.371373
-0.147017 0.649527 -0.112514
-0.514018 -0.0178135 -0.167327
0.00834047 0.0743713 0.408455
0.512265 -0.313384 -0.292279
-0.514018 -0.0653061 0.125516
-0.387932 0.268707 0.408455
0.234318 0.18702 0.371373
-0.38276 -0.566347 -0.555671
-0.514018 0.164926 0.227207
0.512265 0.392913 -0.117979
-0.337162 0.649527 0.190877
0.334031 -0.0973354 0.408455
-0.212976 -0.645979 0.371373
-0.402185 0.490948 0.371373
0.298905 0.239695 -0.555671
-0.514018 -0.559607 -0.176018
-0.39277 -0.122609 0.371373
0.0470018 -0.565546 0.408455
0.179623 0.649527 0.0164856
-0.149492 -0.604319 0.408455
-0.0655022 -0.659943 -0.416729
-0.00281291 -0.659943 -0.442265
0.222217 0.649527 -0.00778187
-0.06581 0.607124 0.408455
0.0544204 0.284834 0.408455
-0.44181 0.0031922 0.408455
0.186981 0.517198 0.449879
-0.109457 -0.659943 -0.238341
0.312953 -0.616634 0.371373
0.512265 0.593152 -0.509526
0.508323 0.119521 0.371373
0.512265 0.13203 -0.146735
-0.514018 0.3045 -0.27535
0.122791 -0.213461 0.371373
0.343709 0.169803 0.408455
0.136361 -0.0571163 0.371373
0.30101 0.497577 0.408455
-0.209434 0.33322 0.371373
0.354542 0.649527 -0.293945
0.269372 0.649527 -0.126114
-0.514018 0.0518203 -0.246823
0.512265 -0.199902 -0.234723
-0.221942 0.649527 -0.401774
-0.0782509 0.649527 -0.0214882
0.386024 -0.646782 0.402738
-0.508153 0.649527 0.116011
-0.0255803 -0.076295 -0.555671
-0.485806 0.649527 -0.419392
-0.252512 -0.627479 -0.555671
0.241289 0.612722 0.408455
-0.514018 -0.509279 0.154006
0.512265 -0.403308 -0.393025
-0.428735 0.199435 -0.555671
-0.135074 0.649527 -0.402499
0.457059 -0.344043 0.371373
-0.514018 -0.203662 0.00169644
-0.423244 -0.176749 -0.555671
-0.00894299 0.547919 0.371373
0.429452 0.27319 0.371373
-0.179573 -0.659943 0.279126
0.184156 -0.659943 -0.0815986
-0.191183 -0.241249 0.408455
-0.0503593 -0.240771 0.371373
-0.443855 -0.404438 0.371373
0.146208 -0.659943 0.124581
-0.25046 0.428511 0.371373
0.346081 -0.659943 -0.190396
0.248823 0.649527 -0.449139
0.0950213 0.616633 -0.555671
-0.504482 0.169239 -0.555671
-0.509062 0.649527 -0.152163
-0.335002 -0.659943 -0.16258
0.377155 -0.341903 0.371373
0.241113 0.649527 -0.171146
0.512265 -0.24884 0.385919
-0.0338354 0.452351 0.408455
0.197272 -0.332698 0.371373
-0.277671 0.649527 -0.320415
0.0352878 0.630088 0.408455
0.498829 -0.0481812 0.371373
-0.1201 0.0644151 0.408455
0.107707 -0.0514362 0.408455
