ply
format ascii 1.0
comment Created by Open3D
element vertex 1666
property double x
property double y
property double z
end_header
-0.187199 0.732789 -0.307996
0.368729 0.780384 -0.307996
0.0484425 0.852227 0.0629004
-0.147713 -0.185005 -0.307996
0.304576 -0.0332693 -0.307996
-0.426703 -0.141995 -0.294191
0.093817 -0.234432 -0.307996
-0.102522 0.103516 -0.307996
-0.426703 0.156665 -0.292479
0.419456 -0.737593 0.306655
0.294111 0.53275 0.306655
0.420342 -0.479034 -0.307996
0.426979 -0.0809262 0.182887
0.426979 -0.268432 0.0460246
0.326921 0.255595 -0.307996
-0.426703 -0.241237 -0.051643
-0.127908 -0.855137 0.153146
0.227208 -0.174827 0.306655
-0.0413791 -0.672861 -0.307996
-0.0449693 -0.167348 0.306655
0.347588 0.0223406 0.306655
0.0964741 0.676694 -0.307996
-0.167481 0.852227 0.151273
-0.426703 -0.477062 -0.146362
0.0548163 -0.520209 0.306655
-0.426703 -0.764359 -0.189485
0.232293 -0.685787 0.306655
0.426979 -0.00736644 -0.0614707
0.372249 -0.233249 -0.307996
0.237126 0.634017 -0.307996
-0.28142 -0.526573 -0.307996
0.426979 0.394001 0.0955749
-0.300529 0.852227 0.201233
-0.426703 0.627502 0.024357
-0.426703 -0.310119 -0.299324
-0.426703 0.0594168 0.166413
-0.244329 -0.855137 0.278257
-0.309455 -0.162339 0.306655
0.0711142 0.8157 -0.307996
-0.426703 0.533023 0.180219
0.339501 0.852227 -0.0554851
-0.206619 0.235865 0.306655
0.353373 -0.732525 -0.307996
0.426979 -0.648009 0.206639
0.342024 -0.249768 0.306655
0.13608 -0.855137 -0.246254
0.316557 -0.855137 0.140514
-0.183007 0.852227 -0.223296
-0.426703 -0.707223 -0.0277833
-0.274742 0.572467 0.306655
-0.426703 0.346692 0.0536437
0.218631 -0.855137 -0.0403393
0.107659 -0.350066 0.306655
0.426979 -0.73218 -0.0162724
0.0208808 -0.765411 0.306655
0.414899 0.462503 0.306655
-0.30243 -0.11042 -0.307996
0.426979 -0.423717 -0.129226
-0.426703 0.193531 -0.0292992
-0.426703 0.633994 0.299892
-0.264599 0.322242 -0.307996
0.424405 0.727783 0.306655
0.426979 -0.756652 0.129277
-0.426703 -0.585069 -0.251905
0.0371135 0.852227 0.298259
0.266365 -0.161933 -0.307996
0.426979 0.511131 -0.306908
0.426979 0.5069 -0.0270945
-0.0483503 -0.855137 -0.0535441
-0.426703 0.240715 -0.199612
-0.30188 -0.855137 0.0131905
0.423484 0.852227 0.187707
-0.203 0.432531 -0.307996
-0.152289 0.744647 0.306655
0.00554132 0.603147 0.306655
0.119383 -0.094711 0.306655
-0.136941 -0.348652 0.306655
0.426979 0.187201 -0.283803
-0.426703 0.437008 -0.0657965
0.11767 0.454973 0.306655
-0.325887 -0.379968 -0.307996
-0.426703 -0.7442 0.221856
-0.293922 0.6727 -0.307996
-0.163253 -0.703716 -0.307996
-0.426703 -0.0406209 -0.0257645
0.101749 -0.701098 -0.307996
0.333028 -0.375217 -0.307996
-0.426703 -0.0156569 -0.189699
-0.013689 -0.157584 -0.307996
-0.385379 -0.372889 0.306655
0.353492 -0.852814 0.306655
0.299335 0.387833 -0.307996
0.0039739 0.852227 -0.113955
-0.313811 -0.474257 0.306655
0.426979 0.756479 0.00710369
-0.286487 0.0504287 -0.307996
0.164309 0.201785 -0.307996
-0.426703 -0.345085 0.17413
0.426979 0.382036 -0.170576
-0.426703 0.363176 -0.214261
-0.410994 0.777685 -0.307996
0.279924 0.119886 0.306655
-0.426703 -0.227348 -0.211864
-0.081055 0.852227 0.305266
0.253627 0.852227 0.273823
-0.412232 0.536789 -0.307996
0.0983091 0.852227 0.19264
-0.0596463 0.228813 -0.307996
-0.426703 -0.445613 0.113414
0.426979 0.00420971 -0.304248
-0.200788 0.852227 -0.0178456
0.33517 0.357285 0.306655
0.103877 -0.855137 -0.00233197
0.426979 0.268496 -0.0653256
-0.426703 -0.166304 0.0388929
-0.317501 -0.797536 -0.307996
-0.426703 0.558595 -0.102551
-0.426703 0.0377726 0.285058
-0.426534 0.362833 0.306655
0.111642 0.694655 0.289582
0.426979 -0.128674 -0.0916312
-0.31198 0.163542 0.306655
0.426979 -0.517297 0.303706
-0.426703 0.738328 0.04691
-0.062029 0.852227 0.0831484
0.302756 -0.588797 -0.307996
0.0794096 0.0505571 0.306655
0.316471 -0.495127 0.306655
0.426979 -0.513822 0.0537683
-0.185041 -0.855137 -0.143455
-0.0993163 -0.855137 -0.303274
0.208542 -0.855137 0.194262
0.000528685 -0.282817 0.306655
-0.426703 -0.560274 0.166807
0.268697 0.852227 0.0572855
-0.426703 0.74242 0.276995
0.426979 -0.361598 0.105902
-0.014085 -0.606839 0.306655
0.426979 -0.188153 0.228412
-0.426703 0.274799 0.201779
0.426979 0.218226 0.220548
0.193234 0.449113 -0.307996
0.178766 -0.569233 -0.307996
0.421392 -0.855137 -0.103566
0.0599331 0.0521343 -0.307996
-0.109974 0.434544 0.306655
-0.115251 0.852227 -0.137728
-0.426703 -0.717552 -0.287806
-0.182245 -0.462439 0.306655
-0.201529 -0.289347 -0.307996
-0.290999 -0.0556588 0.306655
0.141075 -0.750892 0.306655
0.426979 0.62768 -0.193599
-0.161523 -0.770585 0.306655
0.426979 0.731602 -0.232369
-0.426703 0.611462 -0.210875
-0.205815 0.345681 0.306655
0.426979 0.147718 -0.173514
-0.0168929 0.246242 0.306655
0.265711 0.852227 -0.296456
0.426979 -0.605767 -0.0286308
-0.426703 -0.155732 0.203107
0.0257397 -0.855137 -0.184523
0.176257 -0.77526 -0.307996
-0.311317 0.801335 0.306655
-0.0943173 0.781684 -0.307996
-0.128515 0.603767 -0.307996
0.426979 0.623046 0.205023
0.426979 -0.234397 -0.219426
0.426979 -0.648837 -0.173904
0.146481 -0.446628 0.306655
0.233185 0.289763 0.306655
-0.336284 0.20845 -0.307996
-0.31933 0.397867 0.306655
0.178557 -0.266912 0.306655
0.0814673 0.26934 -0.307996
0.426979 -0.042665 0.305172
-0.312087 -0.273848 0.306655
-0.196516 -0.855137 0.0768583
-0.0321887 -0.855137 0.198772
-0.404913 -0.855137 -0.148196
0.426979 0.275773 0.306431
-0.425211 -0.855137 0.214074
-0.324472 0.852227 -0.0220585
0.426979 0.812265 -0.094012
0.426979 -0.317772 0.30093
-0.426703 0.745432 -0.206876
0.319624 -0.741346 0.306655
-0.372601 -0.554804 0.306655
0.279048 -0.058025 0.306655
0.306621 0.852227 0.163798
0.224446 -0.392168 -0.307996
-0.0613188 -0.55504 -0.307996
0.426979 0.138074 0.10285
0.426979 -0.547865 -0.221746
0.324102 0.68177 -0.307996
0.385687 -0.855137 -0.208181
-0.426703 0.406057 -0.305722
0.0116699 0.579049 -0.307996
-0.0517839 0.0661048 0.306655
-0.0986606 -0.253303 0.306655
-0.377749 -0.737187 0.306655
-0.0980262 -0.0948005 -0.307996
0.426979 0.599921 -0.0880079
-0.191047 0.258342 -0.307996
0.263612 0.182183 -0.307996
0.0644612 -0.855137 0.128644
0.166112 0.852227 -0.278974
-0.426703 0.0223474 -0.0985498
-0.317982 0.573864 -0.307996
-0.332114 0.852227 -0.216291
0.426979 -0.765237 -0.239661
-0.212078 0.0563656 0.306655
-0.192646 0.0682375 -0.307996
0.183844 0.103114 0.306655
0.342415 0.852227 -0.231439
0.275887 -0.855137 0.0357123
-0.426703 -0.417985 -0.0721245
0.354551 -0.11383 -0.307996
0.426979 -0.391713 0.195349
0.101941 0.426688 -0.307996
0.120653 -0.855137 0.301913
-0.104851 -0.377271 -0.307996
0.295902 -0.855137 0.232658
-0.426703 -0.550584 -0.0821663
0.426979 0.851272 -0.289688
0.417343 -0.855137 0.114389
0.134288 -0.00432889 -0.307996
-0.426358 0.23804 0.306655
0.426979 -0.0569839 -0.150809
0.426979 0.00922234 0.205388
0.426979 -0.199499 0.108088
0.426979 0.324667 0.034139
0.326144 -0.855137 -0.0420429
0.0229299 -0.35688 -0.307996
-0.368914 0.852227 -0.130319
-0.426703 -0.734509 0.064423
-0.251981 -0.621592 -0.307996
0.190075 -0.855137 -0.163694
0.423396 0.2896 -0.307996
0.202959 0.653681 0.306655
-0.426703 -0.0237986 0.204954
0.426979 -0.50837 -0.0461497
-0.00117592 0.754885 -0.307996
-0.426703 0.586882 0.10659
-0.105807 -0.855137 0.0210315
-0.309556 -0.644734 0.306655
0.426979 -0.351324 -0.073835
-0.150532 -0.599163 0.306655
-0.426703 0.069444 -0.221909
-0.253846 -0.855137 -0.233204
0.426979 0.156401 0.305122
-0.426703 -0.273128 0.0356695
-0.0970318 0.538991 0.306655
-0.0969083 -0.0930842 0.306655
-0.146885 -0.473393 -0.307996
0.426979 0.482699 0.0777437
0.182361 -0.194974 -0.307996
0.204242 0.543204 -0.307996
-0.426703 0.14573 0.140727
-0.249689 -0.72867 -0.307996
-0.117266 0.225544 0.306655
0.0808447 0.852227 -0.049556
-0.206013 -0.291499 0.306655
0.426979 -0.0354886 0.0327798
0.426979 -0.44951 -0.223761
0.0610412 -0.108354 -0.307996
-0.217204 -0.118738 0.306655
0.15393 -0.483408 -0.307996
0.426979 0.695052 0.095894
-0.380264 0.852227 0.0476095
-0.255181 -0.855137 -0.0805561
0.426979 0.430318 0.176923
-0.355029 -0.855137 0.0845767
-0.0584855 0.390019 -0.307996
-0.230645 0.64968 0.306655
-0.201467 0.833011 -0.307996
-0.426703 -0.618988 -0.0181619
-0.0078523 0.355386 0.306655
-0.426703 -0.656587 0.207994
0.136961 0.852227 0.0615674
0.261977 -0.753508 -0.307996
-0.404281 0.852227 0.219036
0.426979 0.466309 -0.223642
0.426979 -0.762281 0.21728
0.32853 0.58501 -0.307996
-0.36563 -0.555742 -0.307996
0.424044 0.852227 -0.0130724
0.0325329 -0.125946 0.306655
-0.317418 -0.855137 0.219378
-0.353679 0.106743 -0.307996
-0.152244 0.852227 0.0550925
-0.426703 -0.416838 -0.209856
-0.233793 -0.200425 -0.307996
0.340937 -0.337114 0.306655
-0.426703 0.210385 -0.117787
-0.0642347 -0.768757 -0.307996
0.257735 -0.855137 -0.218657
0.425353 0.0609949 0.306655
-0.165107 -0.855137 -0.238766
0.251707 0.0420098 -0.307996
0.305379 0.775214 0.306655
-0.00381942 -0.850435 0.306655
0.426979 0.306888 0.147574
0.341965 -0.855137 -0.306543
0.426979 0.0888397 -0.286537
0.426979 0.0577024 0.00148004
-0.426703 -0.332234 -0.0780187
0.426979 0.784002 0.103121
0.21081 0.512265 0.306655
-0.202029 -0.118775 -0.307996
-0.0932529 0.0056993 -0.307996
0.238276 -0.454722 0.306655
0.0575007 -0.467968 -0.307996
-0.143072 0.852227 0.246602
-0.360943 -0.855137 -0.241967
0.0789163 0.221927 0.306655
-0.217206 0.151391 0.306655
-0.426703 0.54886 -0.00798091
0.426979 0.677727 -0.0244442
0.131007 -0.318998 -0.307996
-0.426703 0.109745 -0.0535976
0.354211 0.852227 -0.144253
0.426979 -0.298495 -0.164103
-0.304819 0.488324 0.306655
-0.0264113 -0.855137 -0.258995
-0.426703 0.795268 -0.106633
-0.426703 0.465873 0.238449
-0.426703 0.62389 0.20482
-0.426703 -0.565478 0.0801605
0.0612465 -0.420214 0.306655
0.426979 0.440772 -0.0993
0.25606 0.852227 -0.0458413
-0.148467 0.173671 -0.307996
-0.190305 -0.855137 0.214296
0.161373 0.852227 -0.12498
0.315571 0.451945 0.306655
0.166664 -0.607818 0.306655
0.426979 0.0819221 -0.100092
0.426979 -0.681308 -0.0970203
0.0632304 0.542925 0.306655
0.426979 0.21023 0.0140418
-0.0751619 0.667916 0.289582
-0.426703 -0.0964594 -0.209536
-0.426703 0.768721 0.180379
-0.186046 0.519693 0.306655
0.426979 -0.566029 0.148398
0.425951 -0.215616 0.306655
-0.426703 -0.245014 0.2139
-0.426703 0.428634 0.112101
-0.426703 -0.748261 -0.0997076
0.163359 0.852227 0.243602
-0.426703 0.727694 -0.0349024
-0.426703 0.278628 0.00707255
-0.336282 -0.855137 -0.0617373
-0.426703 -0.158922 -0.0543838
0.426979 -0.187782 -0.0329662
0.403738 -0.32016 -0.307996
0.283628 0.753307 -0.307996
0.211841 -0.0313973 -0.307996
-0.377588 0.114205 0.306655
-0.132725 0.035454 0.306655
0.0984764 -0.800892 -0.307996
-0.383541 0.852227 -0.288597
-0.390831 -0.157642 0.306655
0.364809 0.665709 0.306655
-0.426703 -0.831782 0.0364527
-0.426703 0.149979 0.0430366
0.426979 -0.172953 -0.166226
-0.137249 0.520263 -0.307996
-0.0211681 0.0571965 -0.307996
-0.00252443 -0.687837 0.306655
-0.11431 -0.855137 -0.100537
0.263714 -0.269997 0.306655
-0.0781654 -0.775346 0.306655
-0.332631 -0.0176563 -0.307996
-0.205075 -0.679407 0.306655
0.426979 -0.627221 0.302199
-0.426703 -0.673491 -0.22047
0.426979 -0.820301 0.304989
0.426979 0.204376 -0.115941
0.0294963 0.460779 -0.307996
0.251287 -0.608071 0.306655
-0.426703 0.0306759 0.0917882
0.0659196 0.75803 0.306655
-0.410268 -0.451703 0.306655
-0.00612239 0.851274 -0.307996
-0.0832636 -0.441648 0.306655
0.119863 0.60046 -0.307996
0.160183 0.342736 0.306655
-0.426703 -0.442338 0.0169898
0.348888 0.450215 -0.307996
0.426979 0.576051 -0.254251
0.376276 -0.558398 -0.307996
0.426979 0.777573 0.244777
0.0488239 -0.855137 -0.0668492
-0.188657 0.852227 -0.107557
-0.33603 -0.468986 -0.307996
-0.360729 -0.0148319 0.306655
-0.282528 0.751103 -0.307996
-0.0750558 0.773358 0.306655
-0.426703 0.62729 -0.0634361
-0.261665 0.489982 -0.307996
-0.315726 -0.791468 0.306655
0.0461016 0.421313 0.306655
0.426979 0.313123 -0.231218
-0.244492 0.759471 0.306655
0.426979 -0.794354 0.0588782
0.347844 0.0358928 -0.307996
-0.0325448 0.304775 -0.307996
0.00525624 0.852227 -0.0276335
-0.257429 0.852227 -0.248973
0.216254 0.755051 0.30677
-0.386685 -0.224658 -0.307996
-0.212804 0.636786 -0.307996
-0.254452 -0.452835 -0.307996
-0.0762963 -0.217588 -0.307996
0.348616 0.852227 0.230071
0.426979 -0.396144 -0.29821
-0.334846 0.852227 0.131039
-0.413274 -0.637776 -0.307996
0.426979 0.509486 0.245776
-0.426703 -0.387773 -0.300165
0.413853 0.358016 0.306655
-0.244264 0.852227 0.14056
-0.353796 0.608541 0.306655
-0.426703 -0.307666 0.2642
-0.0181247 -0.494882 0.306655
0.426979 -0.452518 0.110278
0.426979 0.579099 0.12026
0.425128 -0.699967 -0.307996
-0.253619 -0.346012 -0.307996
-0.426703 -0.258667 -0.12659
-0.426703 -0.535128 0.241883
0.138762 -0.855137 0.147669
0.185696 0.690887 -0.307996
0.298056 0.614556 0.306655
0.344096 -0.472892 -0.307996
-0.140658 -0.781374 -0.307996
0.217562 -0.760827 0.306655
0.372567 0.541778 0.306655
-0.426703 0.560293 0.262166
0.230493 0.25751 -0.307996
-0.120476 -0.292247 -0.307996
0.0289553 0.852227 0.136444
0.426979 -0.562883 0.242813
-0.228841 0.852227 0.226264
0.10828 0.14182 -0.307996
-0.0599138 0.16811 0.306655
0.426979 -0.0374364 0.108557
-0.426703 0.146601 -0.208661
-0.109763 0.852227 -0.285168
-0.426703 -0.0335971 0.0521541
0.361979 0.11835 0.306655
-0.426703 0.413847 0.0172262
-0.426703 -0.496306 -0.219112
-0.333296 0.371119 -0.307996
0.426979 0.424651 0.0220754
-0.426703 -0.331271 0.100359
0.426979 0.762689 -0.150352
0.411748 -0.1624 -0.307996
-0.263231 0.237848 -0.307996
0.215685 -0.0982087 0.306655
0.107217 0.351846 -0.307996
0.105748 0.145816 0.306655
0.30707 -0.292263 -0.307996
0.426979 -0.819543 -0.0289733
-0.398483 -0.0741944 -0.307996
-0.426703 -0.724485 0.138469
0.271012 0.194036 0.306655
-0.369089 0.708086 -0.307996
-0.42149 0.230129 -0.307996
0.14162 -0.855137 0.226997
0.426979 -0.133504 0.28401
0.426979 -0.0401762 -0.244582
0.426979 -0.711576 0.0671619
0.426979 0.325062 -0.122866
0.0249273 -0.266859 -0.307996
-0.426703 0.30582 0.115553
0.426979 -0.324502 -0.00468067
0.0153253 -0.7206 -0.307996
-0.397714 0.431835 0.306655
0.426979 -0.08935 -0.306662
-0.426703 0.465592 -0.262742
-0.0101854 -0.855137 -0.116267
-0.262365 0.298913 0.306655
-0.0406251 0.142924 -0.307996
-0.0941782 -0.62201 -0.307996
-0.426703 -0.145875 0.114302
0.404903 0.706686 -0.307996
-0.125665 0.444398 -0.307996
0.0285126 -0.648966 -0.307996
-0.107352 0.710089 -0.307996
-0.357605 0.852227 0.274655
0.296765 -0.411766 0.306655
-0.173455 -0.855137 0.293101
0.0148262 0.241504 -0.307996
0.155304 -0.17164 0.306655
0.360537 0.350014 -0.307996
-0.41911 0.0768355 -0.307996
-0.426703 0.406328 -0.130846
0.0554439 -0.0416853 0.306655
-0.355581 -0.305911 -0.307996
-0.26736 0.399346 -0.307996
0.107022 -0.163221 -0.307996
0.0293319 -0.855137 0.00193733
0.0435797 0.672972 0.289582
-0.426703 -0.381675 0.249115
0.0190604 0.852227 -0.207814
-0.426703 0.696703 0.222292
0.30447 0.28899 0.306655
-0.265554 -0.219889 0.306655
0.0674948 -0.855137 -0.264764
0.18765 0.852227 -0.190862
0.426979 -0.495253 -0.155905
-0.385522 -0.777646 -0.307996
0.106727 -0.568451 0.306655
0.319404 -0.182609 0.306655
0.258613 0.0391386 0.306655
-0.426703 0.359017 -0.0357284
0.136395 -0.639441 -0.307996
0.242359 -0.855137 0.126307
-0.426703 -0.566332 -0.163992
-0.351935 -0.855137 0.158089
0.0226059 0.648488 -0.307996
0.426979 0.664129 0.262
0.216246 0.584827 0.306655
0.0591265 -0.0383111 -0.307996
-0.426703 0.547848 -0.24022
-0.426703 0.311373 -0.16714
-0.268296 0.10209 0.306655
-0.426703 -0.838339 -0.224999
0.361595 -0.647685 -0.307996
-0.212104 -0.517937 -0.307996
0.426979 0.153872 0.170862
0.287681 -0.687922 -0.307996
0.0206308 -0.205123 0.306655
0.111871 0.744548 -0.307996
-0.17188 -0.532952 0.306655
0.426979 -0.286559 0.132206
0.35053 0.847471 -0.307996
-0.200302 -0.390129 0.306655
-0.426703 0.207253 0.185574
0.282033 0.30859 -0.307996
-0.426703 0.0859452 0.235055
0.426979 -0.455152 0.239093
0.116597 -0.00790059 0.306655
-0.426703 -0.189402 -0.126981
-0.0578395 -0.31993 0.306655
0.240285 -0.855137 -0.105995
-0.426703 0.310575 0.261571
0.236257 0.115165 -0.307996
0.361456 0.174619 -0.307996
0.345353 0.852227 0.0142432
-0.426703 0.797799 0.0121718
0.426979 -0.109426 -0.0213181
0.426979 0.74608 -0.0632347
-0.108758 0.852227 0.186821
0.29296 -0.804395 0.306655
-0.227848 -0.787422 0.306655
0.0906695 0.623413 0.306655
0.372637 -0.0372875 -0.307996
-0.426703 -0.799064 0.275339
-0.426703 -0.779522 -0.0289022
-0.322745 -0.406811 0.306655
-0.0619755 0.551956 -0.307996
-0.426703 0.511944 0.109973
0.42676 0.805632 0.306655
-0.251894 -0.446326 0.306655
-0.11033 0.852227 -0.205363
-0.0843241 -0.613655 0.306655
-0.426703 0.695935 -0.254047
0.426979 0.125437 0.0186039
0.417525 0.852227 0.255103
0.163461 -0.852126 -0.307996
0.0401978 -0.347879 0.306655
0.373608 -0.672777 0.306655
0.0738579 0.852227 -0.246854
0.409948 -0.768866 -0.307996
-0.426703 -0.416845 0.174171
0.10694 0.852227 0.125981
-0.101324 -0.0238443 0.306655
0.426979 -0.678947 -0.244424
-0.426703 -0.291099 -0.235167
0.339345 -0.855137 0.0776104
-0.0909713 -0.855137 0.234702
0.278391 -0.2277 -0.307996
-0.14757 0.811284 0.306655
0.426979 0.589674 -0.0221354
-0.426703 0.67388 -0.187567
-0.426703 0.297583 -0.23419
0.426979 -0.67063 0.008711
-0.317937 -0.174856 -0.307996
0.296651 -0.670013 0.306655
-0.092387 -0.855137 0.0859194
-0.108363 -0.186461 0.306655
-0.426703 0.676398 0.0700759
0.426979 0.0990469 -0.221234
0.16051 0.390638 -0.307996
-0.285277 0.116328 -0.307996
0.227854 0.393041 -0.307996
-0.426703 -0.0515442 -0.13443
0.232732 -0.105269 -0.307996
-0.153675 -0.136026 0.306655
-0.309191 -0.855137 0.289335
-0.363802 -0.0827505 0.306655
0.10786 -0.855137 -0.186826
0.352009 -0.855137 0.198473
-0.273241 -0.855137 -0.295968
-0.426703 0.448977 0.174993
0.426979 0.0739312 0.142334
0.426979 -0.751963 -0.078977
-0.192558 -0.855137 0.143252
-0.23014 -0.855137 0.0208174
-0.0213899 0.810496 0.306655
0.426979 -0.266825 -0.275971
-0.148479 0.294556 0.306655
0.426979 -0.135638 0.147582
0.0407027 0.852227 0.222744
-0.368082 0.19619 0.306655
0.426979 -0.704446 0.167798
-0.0489633 0.412597 0.306655
0.270655 0.351124 0.306655
0.196437 -0.855137 0.0218478
0.362686 0.852227 0.131549
-0.270985 0.229812 0.306655
-0.426703 -0.490168 0.160252
0.155203 -0.855137 -0.0525264
-0.320301 -0.729646 -0.307996
0.275115 -0.131525 0.306655
0.426979 0.241383 -0.24868
0.163114 -0.382908 0.306655
0.084502 -0.279372 0.306655
0.426979 -0.815137 -0.162277
0.426979 -0.222914 0.168067
0.350777 -0.0418059 0.306655
-0.426703 -0.104136 0.0549436
0.112878 -0.855137 0.0612298
0.349062 0.523357 -0.307996
0.00928133 0.0315282 0.306655
-0.426703 0.0432405 -0.035421
0.198567 0.849384 0.306655
0.247019 0.852227 -0.235104
0.426979 -0.37076 0.264837
0.153639 0.255264 0.306655
-0.426703 -0.70089 0.282028
-0.361935 0.76218 0.306655
0.426979 0.785166 -0.281945
0.229266 0.852227 0.214704
0.426979 -0.0749154 0.249975
0.0187754 -0.529959 -0.307996
0.426979 -0.37413 -0.169378
0.426979 0.540846 0.0515305
0.0489601 -0.855137 0.0654008
-0.306453 -0.537467 0.306655
0.426979 0.213976 0.149056
-0.0568393 0.852227 -0.0953362
-0.426703 0.801735 0.0756071
0.0554925 -0.827651 0.306655
0.293294 -0.43216 -0.307996
0.426979 -0.445796 -0.0567334
-0.330694 0.272397 -0.307996
-0.0698506 0.607065 0.306655
-0.358038 -0.855137 -0.305287
-0.426703 -0.494865 -0.0493293
0.144689 0.279241 -0.307996
0.206675 0.852227 0.0445019
-0.426703 -0.312769 -0.0178612
0.101848 0.391477 0.306655
0.0860986 -0.719749 0.306655
0.390796 0.232998 -0.307996
0.290614 0.852227 -0.112721
0.329878 -0.186443 -0.307996
0.0419296 0.272939 0.306655
0.426979 0.789934 0.179145
0.364142 0.752701 0.306655
0.349381 -0.855137 -0.100475
-0.385315 0.703839 0.306655
0.426979 -0.207877 0.0293832
-0.426703 -0.0818126 0.180951
-0.426703 -0.80068 0.182877
-0.266515 -0.00899321 -0.307996
-0.171154 0.377774 -0.307996
0.255432 -0.547965 -0.307996
-0.426703 0.348025 -0.282771
0.00208248 -0.855137 0.129344
0.426979 -0.812364 0.158729
-0.426703 -0.813751 -0.107028
0.196608 -0.855137 -0.231487
0.426979 0.278027 0.203191
0.426979 0.417153 0.251338
-0.426703 -0.686161 -0.100265
-0.203687 0.852227 0.0898725
-0.0129973 0.852227 0.0450701
-0.426703 0.228977 0.245246
0.426979 0.794267 -0.217416
-0.0344576 0.852227 0.255684
0.426979 0.68629 -0.17055
-0.158872 -0.346977 -0.307996
0.169869 -0.696093 0.306655
0.109283 0.852227 0.273724
-0.335965 0.514637 -0.307996
-0.426703 -0.410905 -0.148266
-0.0315864 -0.0874576 0.306655
-0.426703 -0.517859 0.301263
0.405269 0.217936 0.306655
0.426979 0.534851 -0.082179
-0.426703 0.611649 -0.133944
0.426979 0.317208 -0.0270429
0.313275 -0.526249 -0.307996
-0.426703 0.101634 0.0977884
-0.114432 0.852227 0.120151
-0.426703 -0.167574 -0.238322
-0.426703 -0.708347 -0.164221
-0.305199 -0.590954 -0.307996
-0.426703 0.246869 -0.0596416
0.426979 0.666189 0.161389
-0.213573 0.577114 0.306655
-0.426703 0.484183 -0.105001
-0.292087 0.852227 0.278353
-0.190244 0.696547 0.306655
0.16518 -0.0491955 0.306655
0.260691 0.852227 0.117972
-0.0613917 0.6155 -0.307996
-0.426703 -0.678844 0.0392246
-0.0366681 -0.855137 0.00632727
-0.426703 0.73494 0.112136
-0.128206 0.272391 -0.307996
-0.251886 0.0102157 0.306655
0.0273607 -0.20598 -0.307996
0.399735 0.567133 -0.307996
-0.426703 -0.492558 0.0746205
0.426979 -0.67508 0.264542
0.0801451 0.852227 -0.126601
0.426979 -0.650594 0.134972
0.426979 -0.577 0.0753697
-0.426703 -0.0816657 -0.0704345
-0.167703 0.452728 0.306655
0.0532761 -0.608566 0.306655
0.372528 -0.794255 0.306655
-0.260674 0.852227 -0.0103646
-0.00649893 0.521508 -0.307996
0.101516 -0.513112 -0.307996
-0.426703 0.537252 -0.158795
-0.367859 -0.659522 0.306655
-0.0214162 -0.615521 -0.307996
0.104306 0.202177 -0.307996
0.203795 -0.44847 -0.307996
0.255707 0.700287 -0.307996
-0.426703 -0.593968 0.255336
0.426979 -0.617368 -0.224712
-0.0348662 -0.371593 -0.307996
-0.156224 0.852227 -0.0574359
-0.232848 -0.511749 0.306655
-0.362484 -0.305434 0.306655
0.426979 -0.532074 -0.281998
-0.426703 -0.061047 -0.25737
-0.426703 0.543273 0.0511841
0.426979 0.407682 -0.237327
-0.0245111 0.852227 -0.166053
0.147182 0.0429778 0.306655
-0.175703 -0.645719 -0.307996
-0.426703 -0.28452 0.16203
-0.426703 0.596201 -0.274469
-0.364782 0.359897 0.306655
-0.16327 0.386817 0.306655
0.164138 -0.251241 -0.307996
-0.4266 0.852227 -0.143007
0.0702648 -0.304701 -0.307996
-0.289597 -0.855137 0.0709457
0.355498 0.600922 0.306655
0.426979 0.43865 -0.293465
0.426979 -0.26061 -0.0384469
0.247539 -0.619433 -0.307996
0.426979 0.672914 -0.237807
0.30292 -0.855137 -0.256493
0.125343 0.513366 0.306655
-0.426703 0.0527793 -0.148922
0.00296592 -0.0914039 -0.307996
0.308529 0.852227 0.305721
-0.426703 -0.783078 -0.26642
-0.10474 -0.709077 -0.307996
0.426979 -0.248748 0.258154
0.202369 -0.855137 0.254059
0.30562 -0.570009 0.306655
0.263704 -0.348561 -0.307996
-0.426703 -0.162819 -0.17928
-0.164913 0.787153 -0.307996
0.183311 0.438804 0.306655
-0.379107 -0.855137 0.0116571
-0.294665 -0.304302 -0.307996
-0.0363646 -0.552791 0.306655
-0.426703 0.222299 0.0224403
-0.36667 0.6363 -0.307996
-0.345001 0.787289 -0.307996
-0.157628 -0.855137 -0.296598
-0.426703 0.827875 -0.257801
-0.0613363 -0.855137 0.148288
-0.0262702 0.438454 -0.307996
-0.0854547 -0.50215 -0.307996
-0.0849361 -0.43323 -0.307996
0.426979 -0.716074 -0.189029
0.0226701 0.0940586 0.306655
0.426979 0.00568567 -0.142313
-0.426703 -0.171615 0.263317
-0.426703 -0.111914 -0.020493
0.314788 -0.804055 -0.307996
-0.243578 0.389534 0.306655
0.426979 -0.230559 -0.160754
-0.426703 -0.217298 0.0662424
-0.426703 0.419859 -0.225678
0.143975 0.649918 0.306655
-0.214142 0.852227 -0.159385
-0.311351 0.336501 0.306655
-0.0787501 -0.159916 -0.307996
0.426979 -0.548965 0.00799199
-0.279542 0.852227 -0.192558
0.316534 0.852227 0.0894833
-0.0385226 -0.855137 0.258643
-0.240807 0.852227 -0.0754209
0.332759 -0.855137 0.0159721
0.371821 -0.479465 0.306655
-0.426703 -0.386426 0.084063
0.298844 -0.0996059 -0.307996
0.426979 0.137701 -0.114027
-0.265623 0.614108 -0.307996
0.214708 0.828433 -0.307996
-0.426703 -0.516642 -0.28172
-0.426703 -0.364599 -0.233731
0.426979 -0.403875 0.0617134
-0.426703 0.018803 -0.254838
0.426979 0.266663 0.00342205
0.426979 -0.625218 -0.0848497
0.169657 0.628935 -0.307996
-0.426703 0.195142 -0.239086
-0.426703 0.494981 -0.0272706
0.090363 0.852227 0.0240126
0.292221 0.852227 0.220782
0.176757 -0.327422 0.306655
-0.164922 0.174419 0.306655
0.156297 -0.718074 -0.307996
-0.426703 0.816259 0.260572
-0.0355658 -0.824683 -0.307996
-0.0987374 -0.855137 -0.246241
-0.246679 -0.62738 0.306655
-0.361945 -0.244914 0.306655
-0.426703 -0.0234649 0.303115
-0.367849 0.852227 -0.0588574
0.105568 -0.486078 0.306655
-0.426703 0.410027 0.248978
-0.392211 0.309399 0.306655
0.16335 0.503838 -0.307996
0.116566 0.055812 -0.307996
-0.045088 -0.234588 0.306655
0.0904428 -0.776489 0.306655
-0.365627 -0.144151 -0.307996
-0.245488 -0.855137 0.201309
-0.04052 0.542422 0.306655
-0.255692 -0.795627 -0.307996
0.426979 -0.522859 0.111821
0.315818 0.0691395 0.306655
-0.422514 -0.57914 -0.307996
0.426979 0.170062 -0.229985
-0.426703 0.794182 -0.17834
-0.361274 -0.612042 -0.307996
0.0691965 0.575554 -0.307996
0.0960392 -0.146085 0.306655
0.15328 0.852227 0.180049
0.207752 0.852227 -0.0931101
-0.181734 0.319887 -0.307996
0.230976 0.493696 -0.307996
-0.355464 0.543411 0.306655
0.173629 0.139079 -0.307996
-0.426703 0.128749 0.198756
-0.0674989 -0.720247 0.306655
0.396003 -0.580588 0.306655
0.372332 0.62005 -0.307996
0.405049 -0.855137 0.263205
-0.170103 0.119543 -0.307996
0.0471991 0.703364 -0.307996
0.330298 -0.855137 -0.199806
0.377652 0.42071 0.306655
-0.426703 -0.210503 0.00468299
-0.241902 0.519156 0.306655
-0.341443 0.0408276 -0.307996
0.263469 0.557919 -0.307996
0.031952 -0.855137 0.176436
-0.410782 -0.855137 0.0858736
-0.195813 0.487818 -0.307996
0.426979 0.520297 0.300452
0.175745 0.716771 0.306655
-0.426703 -0.611477 0.144807
-0.426703 -0.606289 -0.0830196
-0.378672 -0.855137 0.244615
-0.426703 0.155338 -0.0944459
-0.426703 -0.00468207 0.134542
0.426979 0.722098 0.244654
-0.426703 -0.399463 -0.0194559
0.0588463 0.475252 0.306655
-0.426703 -0.275861 0.0960915
-0.426703 -0.58099 0.0270608
0.426979 0.639758 0.0951556
-0.426703 0.671874 -0.00860652
-0.38433 0.473746 -0.307996
0.426979 0.204221 -0.0606749
-0.152766 -0.276741 0.306655
-0.0708284 0.258213 0.306655
0.426979 0.452659 -0.0374622
-0.214793 -0.733767 0.306655
-0.232204 0.773834 -0.307996
0.182427 0.852227 0.101094
0.426979 -0.180266 -0.250641
0.199948 -0.518264 -0.307996
-0.426703 0.79764 -0.0432464
-0.426703 0.329688 0.196779
0.183231 0.0210116 -0.307996
-0.160354 -0.0827408 -0.307996
0.400841 0.852227 -0.241202
0.108917 -0.0634404 -0.307996
-0.426703 0.272602 -0.128151
-0.0858789 0.852227 0.0336097
-0.426703 -0.24748 -0.268614
-0.246445 -0.0601567 -0.307996
0.181017 -0.341785 -0.307996
0.426979 0.559382 0.222746
-0.426703 0.275852 0.0619196
0.426979 0.800394 0.0400721
-0.426703 0.733354 -0.153357
0.426979 0.295742 0.0936893
-0.211904 -0.584168 -0.307996
0.426979 0.849755 0.13313
0.280011 0.439041 -0.307996
0.426979 0.0880478 -0.0440102
0.126981 0.797006 -0.307996
0.426979 0.297262 0.254262
-0.102431 0.711986 0.306655
-0.139036 -0.855137 -0.190884
0.0175475 -0.56083 0.306655
0.270822 -0.855137 -0.0559882
0.219935 -0.807729 -0.307996
-0.148431 -0.855137 0.102019
-0.426703 0.350909 0.146846
0.258769 0.802981 0.306655
-0.250267 -0.252099 -0.307996
0.384482 0.120671 -0.307996
0.426979 -0.823202 -0.222814
-0.152674 -0.704931 0.306655
0.184539 -0.855137 -0.109874
-0.0270369 0.115397 0.306655
-0.127526 -0.536429 -0.307996
-0.273973 -0.680398 -0.307996
-0.426703 0.0916827 0.306437
0.30108 0.813044 -0.307996
0.426979 0.573894 -0.188876
0.380754 0.852227 -0.090305
0.367077 0.313742 0.306655
0.0161241 -0.449845 0.306655
-0.164002 0.659837 -0.307996
0.426979 -0.409329 0.142478
-0.426703 -0.281476 -0.175372
0.287606 -0.855137 0.289472
-0.426703 -0.629872 -0.187364
0.426979 0.468272 -0.145512
0.426979 0.314629 -0.175585
0.258631 -0.527694 0.306655
0.171047 -0.397141 -0.307996
0.410272 0.852227 -0.136633
-0.0292601 0.640303 0.289582
0.426979 0.717034 0.0471036
-0.426703 0.74152 -0.092501
0.426979 0.0132231 0.282689
-0.299663 0.169547 -0.307996
-0.384762 -0.855137 -0.0841492
0.379541 -0.855137 -0.0425702
-0.363508 -0.493762 0.306655
0.358024 -0.855137 -0.253835
0.426979 0.0326461 -0.259073
0.301498 -0.00455169 0.306655
0.141194 -0.80612 0.306655
-0.299505 0.747019 0.306655
0.372685 -0.180349 0.306655
0.0178443 0.0193955 -0.307996
-0.162325 0.852227 -0.171945
0.426979 -0.0298133 0.167903
0.104784 -0.855137 -0.30279
0.348493 0.494299 0.306655
-0.360366 -0.855137 -0.177335
-0.0732393 -0.0436234 -0.307996
-0.245691 -0.855137 -0.132919
0.426979 0.0818248 -0.167601
-0.0951346 0.658342 -0.307996
-0.342716 -0.603177 0.306655
-0.330847 -0.697687 0.306655
-0.166705 -0.855137 -0.0916866
-0.38103 0.811708 0.306655
0.120535 0.757446 0.308534
-0.280244 0.630857 0.306655
-0.308234 -0.855137 -0.247649
-0.097205 -0.855137 -0.0312412
-0.426703 -0.112222 0.233273
0.0501189 -0.415573 -0.307996
-0.0105328 0.186877 0.306655
0.401555 -0.0899562 0.306655
0.0512232 0.766785 -0.307996
0.151736 -0.54084 0.306655
-0.154599 -0.00371399 -0.307996
-0.426703 0.257526 0.136797
0.426979 -0.805631 -0.0798488
0.426979 -0.0470978 -0.0186298
-0.129289 0.488806 0.306655
0.127664 0.0979261 0.306655
0.426979 0.61416 -0.142701
0.350432 0.727359 -0.307996
0.293365 -0.313461 0.306655
-0.0280186 -0.238197 -0.307996
-0.412842 -0.855137 0.153259
0.426979 0.516811 -0.237833
0.295481 0.397283 0.306655
-0.269528 -0.119073 0.306655
0.426979 -0.588145 -0.181339
-0.127397 -0.413639 0.306655
0.0168499 -0.855137 0.241236
-0.166818 0.563341 -0.307996
-0.37045 -0.788914 0.306655
0.0171058 -0.855137 -0.287879
0.216291 0.852227 -0.00833118
-0.426703 0.379149 -0.0862693
-0.155991 -0.0788441 0.306655
0.313042 0.16323 0.306655
0.426979 -0.510879 0.246122
0.0594719 -0.855137 -0.129384
-0.383209 -0.505378 -0.307996
0.373811 -0.407552 -0.307996
-0.0585293 0.852227 0.135072
-0.426703 0.632412 0.142192
-0.382803 0.852227 0.110172
0.426979 -0.445982 0.290272
-0.23443 -0.855137 -0.183673
-0.426703 -0.435045 -0.258551
0.426979 -0.316812 0.0650428
-0.426703 -0.191985 0.165863
0.426979 0.649542 -0.0727881
-0.334223 -0.348963 0.306655
-0.257861 -0.29184 0.306655
0.426979 -0.124124 0.211561
0.100958 0.809651 0.306655
-0.194875 -0.628303 0.306655
-0.37369 -0.698163 -0.307996
0.265855 0.466386 0.306655
-0.0217966 -0.855137 -0.20744
0.353017 -0.531771 0.306655
0.38386 -0.815533 -0.307996
0.426979 -0.488731 0.00164155
0.426979 -0.107305 0.0947362
-0.231022 0.852227 0.0318633
0.426979 0.447135 0.115113
-0.235026 -0.855137 0.113983
-0.426131 -0.754932 0.306655
0.426979 0.390992 -0.112581
-0.0346648 -0.809203 0.306655
-0.426703 0.0379506 0.213198
-0.426703 0.170127 0.30169
-0.424114 0.72795 -0.307996
0.217334 -0.722873 -0.307996
0.206225 -0.414524 0.306655
0.426979 -0.106772 -0.163612
0.227568 -0.219399 -0.307996
-0.426703 0.757967 -0.263228
0.225126 0.700025 0.306655
-0.426703 0.122736 -0.000498936
0.426979 -0.306174 -0.098184
-0.255377 0.70653 -0.307996
-0.217849 -0.688474 -0.307996
0.426979 0.269297 -0.116584
-0.356997 0.157898 -0.307996
-0.326979 0.232998 0.306655
-0.109682 0.38976 -0.307996
-0.254908 -0.12939 -0.307996
-0.426029 -0.855137 0.265218
-0.409563 0.852227 -0.0947777
0.426979 -0.777148 0.275121
0.370759 0.168674 0.306655
-0.229882 0.103187 -0.307996
-0.0375574 0.811045 -0.307996
0.0997024 -0.855137 -0.0532084
0.11117 0.852227 -0.281689
-0.166347 -0.232487 -0.307996
0.426979 0.475335 0.200797
-0.0376644 0.852227 0.000536281
-0.252817 -0.855137 -0.029702
0.426979 0.380984 0.164394
-0.120674 -0.814759 0.306655
-0.32884 0.852227 0.0773535
0.219829 0.338841 0.306655
0.170795 -0.123211 0.306655
-0.144305 -0.130919 -0.307996
0.0128199 0.536881 0.306655
0.426979 -0.568519 -0.0733154
-0.41422 0.585257 0.306655
-0.218938 0.0248693 -0.307996
0.312757 0.194521 -0.307996
-0.426703 -0.401926 0.302775
0.426979 0.178222 0.251546
0.252749 -0.220633 0.306655
-0.426703 0.0105816 0.00314573
0.211662 0.156598 0.306655
-0.135289 -0.481002 0.306655
0.426979 -0.689423 -0.0431141
0.426979 0.0591833 0.198327
-0.00847109 -0.334832 0.306655
0.0869986 -0.855137 0.173709
-0.0712934 -0.388228 0.306655
-0.377314 0.852227 -0.194055
-0.159393 0.852227 -0.276591
0.426979 -0.498727 -0.105663
0.426979 0.0188049 0.131701
-0.134452 0.22245 -0.307996
-0.0689301 0.0187962 0.306655
0.0256804 0.109271 -0.307996
0.0356521 0.306919 -0.307996
0.393674 0.473387 -0.307996
0.260176 -0.734212 0.306655
0.290676 0.073722 -0.307996
0.0783179 0.472584 -0.307996
-0.287485 -0.598113 0.306655
0.072237 0.101931 0.306655
0.426979 -0.713088 0.227223
0.137717 0.852227 -0.237593
0.426979 0.0150999 0.0279287
-0.32833 0.104879 0.306655
0.426979 0.0893223 0.0761169
-0.426703 0.835763 -0.307977
-0.426703 0.645245 -0.247779
-0.426703 -0.347152 0.294833
0.394072 -0.354919 0.306655
0.254637 -0.855137 0.17501
-0.426703 -0.73742 0.011983
0.395304 -0.855137 0.173169
-0.426703 0.108687 -0.270385
-0.426703 0.304229 -0.0357207
0.383984 0.0702204 -0.307996
0.426979 -0.583858 0.197632
-0.151419 0.570253 0.306655
-0.323936 -0.114712 0.306655
-0.349364 -0.0822212 -0.307996
0.232561 0.225622 0.306655
-0.0458907 0.73314 -0.307996
0.426979 0.191851 0.0836845
-0.426703 -0.517853 0.118975
-0.25094 0.828413 -0.307996
-0.363627 0.0394723 0.306655
0.213474 -0.156256 -0.307996
0.0325241 0.326536 0.306655
0.126676 0.297643 0.306655
0.426979 -0.361405 0.036082
0.254309 -0.855137 -0.162671
0.383287 -0.277231 0.306655
0.12841 0.46859 -0.307996
-0.200831 -0.736941 -0.307996
-0.29315 0.852227 -0.0603937
0.426979 -0.228169 -0.306808
0.426979 0.053799 0.254491
-0.426703 -0.311671 0.214992
0.305155 0.852227 -0.194973
-0.332128 -0.855137 -0.116927
0.286374 0.636882 -0.307996
-0.426703 -0.745092 -0.234956
-0.303458 -0.0574266 -0.307996
-0.0675729 -0.855137 -0.133172
-0.0841432 0.852227 0.229517
-0.181484 0.646469 0.306655
-0.382036 0.364015 -0.307996
0.426979 0.797417 -0.0202654
-0.38397 -0.346129 -0.307996
-0.419245 -0.570503 0.306655
-0.193821 0.79457 0.306655
0.0999261 -0.751757 -0.307996
-0.426703 0.3448 -0.130486
0.0332704 0.852227 -0.153418
-0.379571 0.852227 -0.0111352
0.356511 -0.855137 0.255701
0.426979 0.196284 -0.180522
0.426979 -0.306211 0.24902
-0.0328532 0.292621 0.306655
-0.392334 0.586367 -0.307996
-0.382415 -0.43373 -0.307996
0.426979 0.514777 0.114742
-0.426703 0.691547 0.283559
0.208579 0.852227 -0.14662
-0.296616 -0.428019 -0.307996
0.426979 -0.334114 0.146373
-0.123882 -0.0501704 -0.307996
-0.197824 -0.339642 0.306655
0.230663 -0.855137 0.0687322
-0.137024 -0.855137 0.250938
0.195347 -0.477943 0.306655
0.426979 -0.422792 -0.182929
-0.426703 0.623957 0.0729519
-0.426703 -0.480852 -0.0978162
-0.127508 0.670249 0.306655
0.426979 -0.34833 -0.122453
-0.426703 0.511812 0.258243
-0.258966 0.18269 0.306655
0.000309771 -0.418702 -0.307996
-0.426703 -0.78109 -0.142989
-0.022646 0.188047 -0.307996
-0.426703 -0.706277 0.183497
0.0829005 -0.361708 -0.307996
-0.426703 0.603043 -0.0175635
-0.426703 -0.795603 0.0687546
0.426979 -0.769518 -0.191391
0.426979 0.240937 0.270034
0.289503 -0.855137 0.0821414
0.126805 0.852227 -0.0645598
0.426979 -0.46382 0.0632798
-0.132285 -0.423553 -0.307996
-0.426703 -0.821706 -0.175399
-0.426703 0.810871 0.208234
-0.161749 -0.855137 0.043385
-0.0554509 0.484659 0.306655
-0.0752076 0.108277 0.306655
0.426979 -0.0431174 -0.0938009
0.426979 -0.186526 -0.119982
0.208117 0.0496688 0.306655
-0.125234 0.0417091 -0.307996
-0.426703 0.849839 0.0743354
0.222325 0.587795 -0.307996
0.0223432 0.790433 0.306655
0.263837 0.74802 0.306655
0.181002 -0.621509 -0.307996
0.426979 -0.402328 -0.232914
-0.170682 0.852227 0.287824
0.0761229 -0.655397 -0.307996
0.364009 -0.280573 -0.307996
0.0278977 0.404337 -0.307996
0.360827 0.28945 -0.307996
-0.426703 -0.024933 -0.090918
-0.426703 -0.0295536 0.252484
-0.426703 -0.592593 0.207487
-0.105151 0.372537 0.306655
0.15141 -0.855137 0.00281104
-0.0781216 0.17258 -0.307996
0.426979 -0.698581 -0.144561
0.209413 0.18604 -0.307996
0.0770307 0.00758876 -0.307996
-0.31322 -0.0107319 0.306655
0.426979 -0.807762 0.23155
0.256817 -0.855137 -0.0104619
-0.368218 -0.420915 0.306655
-0.328487 -0.205958 0.306655
0.314839 -0.638815 -0.307996
0.0626943 0.622883 -0.307996
-0.426703 0.465336 0.289346
-0.258009 0.831015 0.306655
0.0238804 0.221783 0.306655
0.426979 -0.590569 -0.272344
0.426979 0.339061 0.186809
-0.269563 0.705062 0.306655
-0.426703 0.781853 0.119384
0.426979 0.753923 0.13982
0.104112 -0.400068 0.306655
0.426979 0.341789 0.0827038
0.426979 -0.494875 -0.210297
-0.201184 0.106882 0.306655
-0.0695314 0.344036 -0.307996
0.426979 -0.291031 -0.235344
0.0601082 -0.837482 -0.307996
0.182019 0.293071 0.306655
0.426979 0.49198 0.0177633
0.0581039 -0.773705 -0.307996
-0.115895 0.852227 -0.0905181
0.0409401 -0.258488 0.306655
0.426979 0.385657 0.0486116
0.368588 0.266611 0.306655
0.0101113 0.852227 0.179807
-0.426703 -0.232338 0.261543
0.0818458 0.0938164 -0.307996
-0.426703 0.0920972 -0.0972548
-0.426703 0.197546 -0.16307
0.426979 0.622875 -0.249537
-0.347548 0.852227 0.202257
-0.426703 0.0956786 -0.177617
-0.0315076 -0.735061 -0.307996
-0.181396 0.207148 -0.307996
0.152625 0.143294 0.306655
0.298103 0.149933 -0.307996
0.0401005 -0.668197 0.306655
0.373133 -0.855137 0.131834
-0.227345 -0.0539357 0.306655
0.011919 -0.0700584 0.306655
-0.00290388 -0.855137 -0.0421421
0.365645 0.852227 -0.190763
0.239707 0.328627 -0.307996
-0.132179 0.753674 -0.307996
0.0506852 0.202692 -0.307996
0.426979 0.59863 0.162793
0.426979 0.262404 0.133081
-0.333128 0.852227 -0.100246
-0.0532987 0.214927 0.306655
0.292114 0.852227 -0.0162228
0.0883305 0.267609 0.306655
0.426979 -0.348394 0.21259
-0.136739 -0.226454 0.306655
-0.426703 0.366953 0.103107
-0.125786 0.852227 -0.0128379
-0.426703 -0.61617 0.057556
0.00969873 0.852227 -0.264226
0.148357 0.38982 0.306655
-0.269448 0.556274 -0.307996
-0.426703 0.29209 -0.281197
-0.124918 -0.65687 -0.307996
0.0427595 0.537342 -0.307996
0.426979 -0.0172827 -0.182646
0.0216631 0.80249 -0.307996
0.426979 0.851671 0.301337
0.426979 0.0481948 -0.068366
-0.426703 -0.369832 0.135022
-0.410728 -0.298745 0.306655
0.268751 -0.808065 -0.307996
0.426979 0.664523 0.0348736
-0.426703 -0.668897 -0.0535101
0.426979 -0.48722 -0.263055
-0.339284 0.852227 -0.1657
0.345153 -0.422559 0.306655
0.426979 -0.842555 0.0710731
-0.406383 -0.269638 -0.307996
0.353779 0.852227 0.176768
-0.426703 0.745015 0.231011
0.422087 0.408612 0.306655
0.314941 0.343581 -0.307996
0.426979 -0.751587 0.0418701
-0.377928 0.409844 -0.307996
0.373463 -0.738208 0.306655
0.223785 -0.0353932 0.306655
0.251858 -0.0539804 -0.307996
0.333868 -0.0698628 -0.307996
-0.20278 0.412027 0.306655
0.288685 0.0147935 -0.307996
0.0608943 -0.727602 -0.307996
0.120297 0.202063 0.306655
0.283128 -0.364196 0.306655
-0.426703 -0.802563 0.229614
0.176163 0.542287 0.306655
-0.426703 0.241944 -0.264008
-0.227507 -0.855137 -0.285348
-0.0527899 -0.102205 -0.307996
0.151053 -0.141396 -0.307996
-0.34961 0.478904 0.306655
-0.0132726 -0.134329 0.306655
-0.426703 0.396677 0.147322
0.22737 -0.313552 0.306655
0.365934 0.407776 -0.307996
0.426979 0.59419 0.252401
-0.426703 -0.544346 -0.204086
0.312362 -0.105052 0.306655
0.380883 -0.855137 -0.133561
-0.0716145 0.281098 -0.307996
-0.426703 -0.191314 -0.277319
0.426979 -0.402954 -0.0410155
0.426979 -0.726404 -0.270846
-0.426703 -0.51655 0.197453
-0.0674328 -0.484392 0.306655
0.426979 -0.435667 0.183352
-0.426703 -0.672097 0.140261
-0.348918 0.318746 -0.307996
-0.320912 -0.742124 0.306655
-0.121033 -0.236923 -0.307996
-0.377964 0.243454 -0.307996
-0.247059 -0.178314 0.306655
-0.0400744 -0.505479 -0.307996
0.106635 -0.558385 -0.307996
-0.3915 -0.203033 0.306655
0.426979 0.829015 0.0764428
0.426979 -0.811171 0.108591
0.420319 0.659632 0.306655
0.325669 0.566788 0.306655
0.426979 -0.608072 0.240021
-0.140403 -0.855137 -0.0126345
0.381003 0.668253 -0.307996
-0.117311 -0.752655 0.306655
0.291961 0.245508 0.306655
-0.426703 0.641574 0.255362
-0.0135917 0.385046 -0.307996
-0.046239 0.852227 -0.287261
-0.380385 -0.855137 -0.03927
0.282945 -0.464975 0.306655
-0.426703 -0.00112108 -0.137042
-0.126052 0.852227 0.294082
0.426979 0.557565 -0.126644
-0.426703 0.352964 0.235318
-0.211842 -0.467165 -0.307996
0.412072 0.751049 -0.307996
-0.226704 0.285656 -0.307996
-0.426703 -0.639351 0.249463
-0.426703 0.495645 -0.229375
0.426979 -0.0267855 0.2623
-0.257572 -0.405841 -0.307996
-0.426703 -0.219512 -0.0909258
0.0978314 0.576464 0.306655
0.17264 0.812834 -0.307996
0.0746187 -0.0976172 0.306655
-0.178948 0.852227 0.219685
-0.18674 -0.814527 0.306655
0.361432 -0.334927 -0.307996
-0.426703 -0.371814 -0.126392
-0.057066 0.706635 0.302951
-0.249728 -0.687145 0.306655
-0.426703 0.100986 0.149824
0.188891 0.241083 -0.307996
0.0462952 0.628821 0.306655
0.426979 -0.0815908 -0.261375
-0.426703 0.17052 0.103557
0.426979 0.14485 -0.269609
0.426979 -0.0636525 -0.194969
0.0924986 0.852227 0.0700593
0.378205 0.852227 -0.0332883
-0.291837 0.445128 -0.307996
-0.109977 -0.577424 -0.307996
-0.202785 -0.339217 -0.307996
-0.277895 0.417989 0.306655
0.267722 0.568675 0.306655
-0.110601 -0.855137 0.194696
-0.426703 -0.480752 -0.00596594
-0.0629981 -0.652762 0.306655
0.203058 -0.229751 0.306655
0.177507 0.606732 0.306655
0.103049 -0.468658 -0.307996
0.426979 -0.148463 -1.05158e-05
0.189135 -0.795021 0.306655
-0.0336967 -0.749122 0.306655
0.417245 -0.685449 0.306655
0.0746713 0.382079 -0.307996
-0.286114 0.852227 0.159225
-0.139051 -0.649304 0.306655
0.0629823 -0.157578 -0.307996
-0.065373 0.061242 -0.307996
0.199559 -0.637606 0.306655
0.203291 -0.582775 0.306655
-0.426703 0.553056 0.140666
0.426979 -0.754911 0.173569
-0.426703 -0.141102 0.158362
-0.426703 -0.558491 -0.0195512
-0.426703 0.579621 0.203234
-0.217825 -0.248806 0.306655
-0.103341 0.809292 0.306655
-0.426703 0.841817 0.0166386
-0.286261 -0.855137 -0.203099
-0.426703 0.403193 -0.0336473
-0.426703 0.29952 0.164511
-0.308491 0.852227 0.0345136
-0.343592 0.852227 -0.269763
0.426979 0.480712 -0.0804841
-0.426703 -0.750184 0.174365
-0.426703 -0.438434 0.0609603
0.426979 0.722914 -0.0257489
0.0553193 0.852227 -0.0136386
0.426979 0.460303 0.26023
-0.112427 -0.312077 0.306655
0.179191 -0.855137 0.291432
0.22058 -0.855137 -0.277041
0.426979 -0.0918242 -0.122267
-0.0722119 0.431779 -0.307996
-0.215776 0.852227 -0.263016
-0.426703 0.850922 0.175934
-0.198903 0.0144461 0.306655
0.104435 0.308039 -0.307996
0.426979 0.676166 0.204128
-0.426703 -0.31378 0.0521911
0.145094 -0.214308 0.306655
0.17376 0.488787 0.306655
0.147795 0.852227 0.0190651
0.426979 0.36882 -0.216992
-0.426703 -0.67465 -0.278737
-0.360459 0.667732 0.306655
0.302867 -0.626664 0.306655
-0.0316224 0.0146981 -0.307996
-0.333154 -0.855137 0.0467017
-0.133443 -0.855137 -0.0612158
-0.0946043 -0.811939 -0.307996
-0.218987 0.293561 0.306655
0.127778 -0.596605 -0.307996
-0.426703 0.0109522 0.178496
0.356234 -0.518389 -0.307996
-0.426703 -0.413542 0.219297
0.426979 0.557888 0.276584
0.169855 0.731502 -0.307996
0.4084 0.101149 0.306655
-0.426703 0.400337 0.0751187
0.251218 0.852227 -0.0902379
-0.169013 -0.510861 -0.307996
0.426979 0.283701 0.0487946
0.426979 -0.593971 0.0353143
-0.426703 0.0652798 0.121679
0.053352 0.852227 -0.0832541
-0.426622 0.774218 0.306655
0.297109 0.852227 -0.0651563
0.160816 -0.0387479 -0.307996
-0.426703 -0.00313508 -0.0476636
0.135615 -0.663727 0.306655
0.426979 -0.756881 0.084924
-0.118876 -0.855137 -0.143624
0.426979 0.637935 -0.0073232
-0.230839 0.349373 -0.307996
-0.426703 0.662006 0.183194
-0.148663 0.0756835 0.306655
0.240709 -0.855137 0.234034
0.208477 0.852227 -0.27027
-0.24951 -0.555748 -0.307996
0.0692169 0.852227 0.152183
-0.320459 0.852227 0.245746
0.247628 -0.40218 0.306655
0.237021 0.115037 0.306655
-0.426703 0.37084 -0.171779
-0.324926 -0.336281 -0.307996
-0.0293944 0.852227 0.299152
0.426979 0.810106 -0.167868
0.426979 -0.278498 0.0898394
0.426979 -0.179887 0.170567
-0.426703 -0.451953 -0.181373
-0.426703 -0.331894 -0.261762
0.245969 0.651349 0.306655
0.426979 0.394511 0.205276
-0.0948476 -0.335407 -0.307996
0.148237 0.852227 0.291984
0.0618702 0.375645 0.306655
-0.40698 -0.111561 0.306655
0.426979 -0.0135651 0.072842
0.332561 0.852227 -0.103494
0.426979 0.540858 -0.000887143
0.426979 -0.246052 0.215356
0.426979 -0.602816 0.109579
0.425406 0.852227 -0.0786501
0.063892 -0.855137 0.274907
0.306799 0.852227 0.262936
-0.426703 0.564277 -0.20068
0.362891 -0.159177 -0.307996
-0.187571 -0.16941 -0.307996
0.137963 -0.309404 0.306655
-0.00769955 0.696664 -0.307996
-0.426703 -0.531175 -0.139672
-0.164001 0.254744 0.306655
0.402425 0.821529 -0.307996
-0.426703 0.432283 -0.164721
-0.134544 0.341606 0.306655
0.426979 0.30946 -0.0831568
0.426979 -0.144582 -0.0454667
-0.199152 0.852227 -0.0604472
-0.0216799 0.852227 -0.0606544
0.426979 0.339355 -0.303264
0.31152 0.654953 0.306655
0.426979 0.170642 0.0297033
-0.273271 -0.788378 0.306655
0.152246 0.572864 -0.307996
-0.315751 0.636185 -0.307996
0.298263 -0.855137 -0.100038
0.0466708 0.720714 0.300041
-0.426703 0.0133369 0.0455488
-0.0169688 0.852227 0.12625
0.037312 -0.305493 0.306655
0.368902 0.0590519 0.306655
-0.382588 0.191759 -0.307996
-0.426703 0.446444 -0.0244218
0.381028 -0.449338 -0.307996
-0.426703 0.717078 0.172938
-0.426703 0.656436 -0.148959
-0.00660887 -0.563877 -0.307996
0.426979 -0.617173 -0.126443
0.203682 0.852227 0.256574
0.426979 -0.530393 0.185849
0.426979 0.349821 -9.22435e-05
0.0522438 0.000497911 0.306655
0.384161 -0.611911 -0.307996
0.124493 -0.855137 0.107866
0.131258 0.706974 -0.307996
0.336575 0.803697 0.306655
0.263921 0.852227 0.189442
-0.426703 -0.439758 0.269641
0.426979 -0.189999 0.270594
-0.197209 0.685864 -0.307996
-0.426703 0.758981 -0.00435571
0.4043 0.852227 0.0282644
-0.144042 -0.0229813 0.306655
-0.426703 -0.291864 -0.065886
0.0100227 -0.306287 -0.307996
0.14473 0.332641 -0.307996
0.0132422 -0.45881 -0.307996
0.310756 0.852227 -0.259253
-0.287882 -0.767561 -0.307996
0.426979 -0.241231 -0.00104573
0.14745 -0.855137 -0.13694
-0.335938 0.835497 0.306655
-0.426703 0.669185 -0.0595025
0.179674 0.852227 -0.234533
-0.296867 -0.313018 0.306655
-0.15842 -0.855137 0.186949
0.400198 -0.666165 -0.307996
0.426979 -0.836199 0.0285815
-0.426703 -0.36959 -0.0589498
0.426979 0.72707 -0.180292
-0.426703 0.491112 0.180838
-0.315711 0.409152 -0.307996
0.220111 0.458748 0.306655
-0.426703 -0.688954 0.0798209
0.124744 -0.606181 0.306655
0.148941 0.852227 -0.17517
0.426979 -0.677535 0.0913455
-0.424272 -0.754023 -0.307996
-0.426703 -0.793887 0.0189172
-0.426703 0.0250775 -0.180538
-0.426703 -0.0541118 -0.216215
0.426979 0.771688 -0.103735
-0.19487 -0.15397 0.306655
-0.365229 0.249636 0.306655
-0.31624 0.0796405 -0.307996
0.426979 -0.229189 0.0652043
-0.426703 0.654798 0.107057
0.426979 -0.0781339 0.124475
-0.426703 0.126959 0.270581
-0.213569 -0.855137 -0.0815125
-0.426703 0.198675 0.0566949
-0.426703 0.330428 0.015365
0.348797 -0.855137 -0.162579
-0.313106 0.600044 0.306655
0.0174308 -0.600743 -0.307996
0.426979 -0.804526 -0.259942
-0.17002 0.6057 -0.307996
0.426979 -0.543828 -0.161989
0.124766 -0.36216 -0.307996
-0.231356 0.207576 -0.307996
-0.38845 0.129274 -0.307996
-0.426703 -0.705525 0.236713
-0.426703 0.505812 -0.284647
-0.380034 0.852227 0.151442
-0.262065 -0.830867 0.306655
0.426979 -0.778446 -0.0472336
-0.318552 0.705891 -0.307996
0.426979 -0.627585 0.170724
-0.426703 -0.0299534 -0.292354
-0.426703 -0.747042 -0.0584517
0.426979 0.24542 -0.292609
0.264391 0.852227 0.0162815
-0.0741014 0.852227 -0.185774
0.268362 -0.176443 0.306655
0.156228 -0.855137 -0.187142
0.203735 -0.0717572 -0.307996
0.400635 -0.0110928 0.306655
0.410992 -0.855137 -0.243247
-0.157142 0.417908 -0.307996
-0.00815099 0.407547 0.306655
-0.276465 0.796215 -0.307996
6.55608e-05 -0.682464 -0.307996
-0.403201 -0.177428 -0.307996
0.426979 -0.629653 0.0106618
-0.393954 -0.699185 0.306655
-0.11074 0.168854 0.306655
-0.2708 -0.496231 0.306655
0.426979 0.44507 -0.188582
-0.248802 -0.855137 0.0748696
0.426979 -0.272319 0.291672
0.206154 0.0560815 -0.307996
0.0525659 0.852227 -0.307836
-0.108152 0.852227 0.0679782
-0.1152 0.266422 0.306655
-0.296794 -0.480608 -0.307996
0.254968 0.782466 -0.307996
0.260367 -0.0171679 0.306655
