ply
format ascii 1.0
comment Created by Open3D
element vertex 1666
property double x
property double y
property double z
end_header
-0.440374 -0.0795678 -0.050575
0.0361797 -0.0277761 0.394847
-0.440374 0.535133 -0.106328
0.441922 0.273351 -0.0353161
-0.400658 -0.196937 -0.43555
0.435686 -0.603613 -0.417765
-0.438014 -0.601862 -0.00733252
0.138922 0.679725 -0.223235
0.138251 -0.396148 0.394847
-0.128226 0.311833 0.357101
-0.0910815 0.442313 -0.43555
0.439563 -0.468922 -0.047508
-0.166449 0.679725 0.108785
0.431046 0.642936 0.423155
-0.233552 -0.396014 -0.198136
0.0649987 -0.346474 0.0610668
0.453335 -0.21885 0.391886
0.273185 0.0209402 -0.235028
0.137036 -0.37761 -0.43555
-0.395552 0.2714 0.100574
-0.41061 0.542236 -0.43555
0.441922 0.50841 -0.250826
-0.448154 -0.212606 0.394753
0.178153 0.378967 0.274996
-0.021694 0.139263 -0.43555
-0.103495 -0.603613 0.0455983
-0.0989536 -0.58731 -0.421395
0.217444 -0.603613 0.102305
-0.435159 -0.599496 0.293406
0.307666 0.0485317 0.319356
0.129616 0.679725 0.121989
-0.440303 0.397809 0.394847
-0.251849 0.0671864 -0.235028
-0.226944 0.378967 -0.201723
-0.440374 -0.335426 0.0634996
-0.211208 0.679725 -0.177576
0.209315 0.378967 -0.167049
-0.22171 -0.0507097 0.319356
-0.148067 -0.304031 -0.43555
0.441922 -0.23005 -0.162606
0.022125 -0.603613 0.27879
-0.190953 0.579353 0.423155
0.441922 0.0862687 -0.423746
0.259317 0.555975 -0.43555
0.441922 0.446551 0.190504
0.31508 -0.346474 0.203089
0.180355 -0.109686 -0.43555
0.158056 -0.346474 -0.177537
-0.0834386 -0.257273 0.394847
-0.440374 0.242891 -0.183871
-0.440374 0.513617 0.137799
-0.440374 -0.0554178 0.190163
0.122804 0.790964 -0.43555
-0.186145 -0.0428813 -0.43555
-0.440374 -0.280961 -0.195374
0.441922 0.0965214 0.121606
-0.430618 0.789935 -0.416677
0.191477 -0.603613 -0.41279
0.441922 0.268485 -0.2677
0.218424 -0.164604 0.319356
-0.00127985 0.299939 -0.272774
0.316864 -0.452633 -0.29715
0.234432 0.378967 0.0562925
-0.155589 -0.346474 0.0236818
0.105922 0.18077 0.357101
-0.245559 -0.166308 -0.235028
-0.438014 -0.52055 -0.214484
-0.14465 -0.603613 -0.205762
0.0589326 0.0734416 -0.235572
0.441922 0.00271944 -0.0822199
-0.204742 0.378967 0.119734
-0.440374 0.00214385 -0.320439
0.358373 0.679725 -0.15285
-0.000451843 0.679725 -0.0613866
0.00599336 -0.452633 -0.284693
-0.360733 0.679725 0.0246244
0.2765 0.679725 0.272104
0.289313 0.488414 0.423155
-0.206082 -0.603613 0.247103
0.357864 -0.440152 0.394847
-0.4169 -0.416587 0.394847
-0.0398309 0.679725 -0.354337
-0.0288098 -0.396014 0.248057
0.441227 0.39238 -0.43555
0.441922 0.502363 -0.0225002
0.0339378 0.435074 0.403895
-0.239283 0.140001 0.394847
0.439563 -0.588758 -0.215724
-0.0248207 -0.452633 -0.0846871
-0.317188 -0.411028 -0.43555
0.210479 0.103837 -0.43555
0.164055 -0.149969 -0.235028
0.249204 -0.396014 0.0117153
-0.195067 0.245778 -0.43555
0.243047 -0.566405 0.293406
-0.0229439 0.378967 0.194338
-0.440374 0.410905 -0.284791
-0.400408 0.679725 -0.257865
-0.372033 0.0734416 0.0493536
0.289759 -0.603613 -0.0943577
0.441922 -0.06652 -0.268718
-0.0279585 0.679725 0.241974
0.201104 0.20537 -0.272774
-0.226061 0.594192 -0.43555
0.441922 -0.071922 0.254566
-0.32294 -0.452633 -0.0361152
0.421386 -0.603613 0.0858957
0.0798199 0.358413 -0.43555
0.441922 -0.299742 0.0395387
-0.357806 -0.254908 0.219096
-0.134182 -0.450759 0.394847
0.397099 0.264536 0.20966
-0.26546 0.679725 0.28356
0.441922 -0.416126 -0.431596
-0.315162 0.378967 -0.0367327
-0.440374 0.252647 0.27891
0.441745 0.576966 -0.43555
0.0363781 -0.221483 -0.43555
-0.265254 -0.244419 0.394847
0.0732545 0.564966 -0.43555
-0.403613 -0.452633 0.194084
-0.308122 0.378967 0.265194
-0.306772 0.384487 -0.43555
0.276316 0.213 0.394847
0.228056 0.679725 -0.0250177
-0.0844892 -0.310154 -0.235028
0.441922 0.625106 0.232611
-0.395552 0.0729517 -0.135697
0.125392 -0.452633 0.189662
0.291332 0.679725 -0.31716
0.274747 -0.256383 -0.43555
0.47259 0.47585 0.401504
0.0201868 -0.0439701 -0.43555
0.453717 0.109017 0.389269
-0.0918434 0.148726 -0.272774
-0.295965 -0.603613 -0.124344
-0.306152 -0.603613 0.101135
-0.0546931 0.123236 0.357101
0.0695848 -0.244812 0.319356
-0.271684 0.431765 0.423155
0.397099 0.125827 -0.190991
0.0957168 -0.603613 -0.0181329
-0.357806 -0.236242 -0.0567194
0.439563 -0.458263 0.200771
-0.407289 0.679725 0.193046
0.312597 -0.261741 -0.272774
0.345527 -0.0481577 -0.43555
0.316646 -0.346474 -0.13082
-0.282457 0.242409 -0.272774
-0.167445 -0.452633 -0.359903
0.441922 -0.229484 0.213712
0.0440667 -0.603613 -0.3463
-0.440374 -0.332073 -0.356301
-0.440374 0.105519 0.212703
0.34718 0.378967 0.310334
-0.395552 -0.125301 -0.20074
-0.360399 -0.0615603 0.394847
0.397099 0.378842 -0.163505
-0.357806 -0.164956 0.0839491
-0.313562 -0.603613 -0.29125
-0.0596965 -0.452633 0.0897917
0.244549 0.648899 0.423155
0.258128 -0.603613 -0.270982
-0.440374 0.533188 0.293583
0.333189 -0.0898131 0.394847
0.441922 -0.378249 -0.240034
-0.440374 0.20117 -0.0333862
0.278044 0.792962 -0.429541
-0.057152 0.378967 -0.152157
0.287126 -0.280604 0.394847
0.4089 0.236674 -0.43555
-0.154347 0.378967 -0.0326346
0.157985 0.541551 0.357101
0.441922 0.663054 -0.279384
-0.343525 0.0233888 -0.43555
-0.237271 -0.452633 0.0953251
0.0489741 -0.603613 0.125835
-0.0670368 -0.108475 0.319356
0.153261 0.0422271 0.319356
0.156708 -0.452633 -0.284813
-0.0293025 -0.603613 -0.109383
-0.141874 -0.025809 -0.272774
-0.0408117 0.560721 0.357101
7.25285e-05 -0.452633 -0.433299
0.128658 0.679725 0.279792
-0.336565 0.292572 0.394847
0.0564485 -0.291011 -0.272774
-0.440374 0.382132 0.202333
-0.33267 0.576997 0.387421
0.391856 0.378967 0.0518619
-0.0568185 0.292066 -0.43555
0.441922 -0.358305 0.309124
-0.440374 0.423198 0.0220072
-0.243346 -0.602292 -0.421395
-0.440374 -0.375424 -0.0854881
-0.337936 0.679725 -0.400748
0.311094 -0.11813 -0.235028
-0.00482378 0.679725 -0.213643
-0.247655 -0.20005 -0.43555
-0.440374 0.141369 -0.285316
-0.215479 0.679725 -0.321305
0.291716 -0.430671 -0.43555
0.11747 -0.452633 -0.0860265
-0.440374 0.340563 -0.415861
-0.303444 -0.511998 0.293406
0.285457 0.318954 -0.272774
-0.323007 -0.277434 -0.272774
-0.333355 -0.452633 -0.302238
0.135669 0.2305 -0.43555
-0.440374 0.365085 -0.11651
0.12982 0.378967 -0.0403447
-0.193654 0.679725 -0.0279851
0.441922 -0.169567 -0.0321084
-0.438014 -0.474011 0.0518544
0.359355 0.0421246 0.0241521
-0.438014 -0.580705 0.155685
0.11915 0.378967 -0.271568
0.000449741 -0.389598 0.394847
-0.0242078 0.792962 -0.431464
0.359355 -0.0128347 0.161526
0.352833 -0.452633 0.0819774
-0.0818012 -0.603613 0.189013
-0.152213 0.285072 -0.272774
0.000921023 0.285857 0.394847
0.441922 0.135812 0.255691
0.18646 -0.346474 0.249623
0.140502 0.679725 -0.35925
-0.191495 -0.452633 -0.0702841
0.441922 -0.230867 -0.300354
0.439563 -0.505943 -0.323906
-0.116846 0.429487 0.423155
-0.421696 0.679725 -0.0961544
0.439387 -0.603613 -0.05792
-0.218166 0.112816 -0.43555
0.441922 0.554165 0.106901
0.141207 0.331069 0.394847
-0.135721 0.679725 0.353296
-0.0162612 0.679725 0.0713735
0.0857742 0.378967 0.116741
0.275003 0.679725 0.138585
-0.0987478 -0.180453 -0.43555
-0.440374 -0.323729 0.30249
-0.440374 -0.16487 0.27082
0.109295 -0.143398 0.394847
-0.440374 0.554793 -0.275859
0.450505 -0.0230809 0.394567
-0.438014 -0.479472 -0.378113
0.441922 0.144092 -0.00942442
-0.100278 -0.00660469 0.394847
-0.136766 -0.346474 0.170406
0.243897 -0.452633 -0.152432
-0.440374 0.00987158 0.303096
-0.255985 -0.404282 0.394847
-0.175039 -0.145854 0.394847
-0.226024 -0.603613 -0.00116021
-0.440374 -0.185764 -0.313025
0.158691 -0.0255389 -0.272774
-0.308807 -0.346474 0.0779883
-0.112445 -0.52747 0.293406
0.359355 -0.166549 0.290233
-0.264909 -0.346474 -0.0801205
0.303015 0.434965 -0.43555
-0.0939782 -0.452633 -0.193149
0.441922 -0.341651 -0.0988228
0.350885 -0.603613 0.193019
0.190996 -0.346474 0.121602
0.0475175 -0.346474 -0.101336
-0.181871 0.378967 0.24719
0.156197 0.468152 -0.43555
-0.471041 0.544755 0.4165
0.441922 0.677369 -0.0572754
-0.316979 -0.0563762 -0.272774
0.359355 -0.105143 -0.103833
0.294251 -0.452633 0.270771
0.288279 0.378967 0.170976
-0.42476 -0.0732372 -0.43555
0.329713 0.378967 -0.0571488
-0.186946 -0.308529 0.319356
0.441922 0.393823 -0.299449
-0.333345 0.378967 0.107524
0.182412 -0.266836 -0.272774
0.13555 -0.603613 0.21481
-0.14452 -0.346474 -0.113651
0.190932 -0.0481744 0.394847
0.441922 0.23897 0.0829656
0.0621896 -0.472802 0.293406
0.336616 0.684843 -0.43555
0.334704 0.59791 0.357101
0.1318 0.00963314 -0.43555
-0.0273895 -0.603613 -0.241804
-0.178692 0.0640691 0.319356
-0.440374 -0.0334892 0.062489
-0.438014 -0.496877 -0.076721
-0.374348 -0.396014 -0.20266
0.441922 0.0536096 -0.287381
-0.0677875 0.561441 -0.43555
0.253691 0.375567 0.394847
-0.318992 -0.333874 0.319356
-0.440374 0.558219 0.0122965
0.359355 -0.263606 -0.0408942
0.302162 -0.556239 -0.421395
-0.357806 0.0294345 0.166786
-0.312331 0.0285422 0.319356
0.359355 -0.248157 0.128129
0.135005 -0.452633 0.0327991
-0.278269 0.679725 0.164472
0.362295 -0.452633 -0.169024
-0.35496 0.180752 0.357101
0.0726156 0.378967 -0.144846
-0.10665 0.0458092 -0.43555
-0.440374 0.103335 -0.412586
0.31317 0.146064 -0.272774
-0.216674 0.462043 -0.43555
0.0587817 0.378967 0.302369
-0.320252 0.363475 -0.272774
-0.115534 0.679725 -0.255283
0.441922 -0.0356659 0.0562189
-0.357806 -0.08095 0.275878
-0.0871716 0.378967 0.096358
-0.440374 0.156015 0.107057
-0.33656 -0.603613 0.21419
0.238925 -0.452633 0.133192
-0.305193 0.679725 -0.104156
0.318623 -0.603613 0.0308851
0.304824 0.184363 -0.43555
0.377363 -0.603613 -0.31703
0.0789537 -0.346474 0.190424
0.441922 0.593118 -0.136811
0.138004 0.679725 -0.0978719
0.441922 0.526557 0.293197
-0.145583 -0.210519 -0.272774
-0.222406 0.256441 0.394847
-0.357806 0.00897092 -0.0471671
-0.163385 -0.603613 -0.326928
0.397099 0.230572 -0.142378
0.441922 -0.0952449 -0.380497
0.138864 -0.501743 -0.421395
0.166132 0.0919176 -0.272774
0.0407668 0.687894 -0.43555
-0.0254727 -0.346474 -0.0129497
-0.440374 -0.195785 0.157015
0.441922 -0.361597 0.140077
0.441922 -0.314497 -0.377747
-0.0137837 -0.323736 -0.43555
-0.299285 -0.0988941 -0.43555
0.441922 0.168235 -0.345258
0.161057 -0.346474 -0.0397467
-0.440374 -0.214623 0.0251338
0.225564 0.11239 0.394847
-0.331939 0.378967 -0.14809
0.0472762 -0.043796 -0.272774
0.062089 0.207059 -0.272774
-0.427654 -0.603613 -0.13945
-0.156538 0.679725 0.242874
0.207971 -0.603613 -0.0163521
0.147638 -0.272851 0.394847
-0.440374 0.645975 -0.356647
-0.440374 -0.0279484 -0.169004
0.23161 0.679725 -0.158813
-0.119134 0.679725 -0.114489
0.164962 -0.236422 -0.43555
-0.113911 -0.452633 0.195822
-0.440374 -0.323816 0.174371
0.359355 -0.278418 0.279388
0.107318 0.679725 0.0129103
0.0448351 0.0664683 0.319356
-0.446408 0.276762 0.394847
-0.440374 0.276943 -0.32497
0.255767 -0.397003 0.394847
0.397099 0.21197 0.335594
-0.0317679 -0.346474 0.134996
-0.435351 -0.603613 -0.28772
-0.170584 -0.603613 -0.096987
-0.159028 0.354968 -0.43555
-0.0507217 0.046002 -0.272774
0.330755 -0.452633 -0.0590236
-0.130233 0.692896 -0.416677
-0.133207 0.191743 0.394847
0.0712846 -0.452633 -0.196236
-0.300026 -0.163722 0.319356
0.441922 0.354559 0.253726
-0.208684 0.160655 -0.272774
-0.318665 -0.301419 -0.43555
-0.440374 0.306842 -0.00446664
-0.319097 0.786157 -0.416677
-0.440374 -0.182659 -0.103098
-0.0978853 -0.405421 -0.43555
-0.211043 -0.320553 -0.272774
-0.440374 0.64233 0.0880119
0.441922 -0.0979478 0.149325
-0.357806 -0.344149 -0.0185539
0.23594 -0.379962 -0.272774
0.342647 -0.346474 0.0640584
-0.371285 0.471924 0.357101
-0.33662 -0.520092 -0.421395
0.141274 -0.603613 -0.289814
0.362228 0.0734416 -0.0985657
-0.0463441 0.378967 0.33882
-0.357806 0.0387008 -0.230196
0.441922 0.494217 -0.35715
0.327408 0.0796046 -0.43555
0.397099 -0.0198872 -0.176499
-0.181599 -0.603613 0.118413
-0.124268 -0.396014 0.294819
0.146924 0.433223 0.423155
0.0312405 0.452333 -0.43555
0.230931 0.699313 -0.416677
0.102813 0.13014 -0.43555
-0.205408 0.480651 0.357101
0.333373 0.679725 -0.00118908
0.346649 -0.160514 -0.43555
0.190674 -0.452633 0.288145
-0.440374 0.0727515 -0.037544
-0.144967 -0.212571 0.319356
0.393072 -0.323395 0.394847
0.441922 0.0331414 0.206408
-0.317727 0.138972 -0.272774
0.248696 -0.0091036 -0.43555
0.395246 -0.476429 0.293406
0.0690856 -0.170394 -0.272774
-0.122114 0.378967 -0.233581
-0.366858 -0.277715 0.394847
-0.357806 -0.0784092 -0.11589
-0.236177 0.378967 0.340276
0.362419 -0.348371 -0.43555
-0.409167 -0.498897 0.293406
0.0748658 0.528475 0.423155
0.0684038 -0.346474 0.298707
0.00611072 -0.153334 0.394847
-0.309329 0.508136 -0.43555
-0.440374 0.603642 -0.183799
0.441922 0.403928 -0.0540566
-0.132146 -0.393735 -0.272774
0.359355 -0.162812 0.187031
0.40658 0.396722 0.394847
0.0331359 -0.452633 0.0175309
0.0405116 -0.452633 0.131441
0.384406 0.536672 0.423155
0.411282 0.679725 0.314142
-0.0830064 -0.0789335 -0.43555
-0.00547296 -0.603613 0.0150301
0.12245 -0.0590782 0.319356
0.453717 -0.120012 0.361552
-0.106047 -0.452633 -0.00150948
0.0354849 0.679725 0.331039
-0.440374 -0.416887 -0.297529
0.174925 0.378967 0.166422
-0.357806 -0.0595383 0.116898
-0.357806 -0.145395 0.189262
0.441922 -0.189406 0.0774909
0.259451 -0.047868 0.319356
0.441922 -0.113118 -0.178042
-0.246992 -0.603613 -0.213723
-0.440374 0.487032 -0.200162
0.0721173 -0.452633 -0.362025
-0.440374 0.482585 -0.356395
-0.0608291 0.651417 0.415372
0.441922 0.322916 0.139665
-0.320996 -0.396014 0.181896
0.33455 0.295161 0.394847
-0.421071 -0.391133 -0.43555
-0.296196 0.679725 -0.231588
0.353841 -0.188272 0.394847
-0.257968 0.651417 0.402267
-0.440374 -0.0871782 0.339667
0.347817 0.14246 0.394847
0.372697 0.679725 0.185284
-0.440374 0.349575 0.303751
0.441922 0.686366 -0.429275
0.342525 -0.356817 -0.272774
-0.221741 -0.382407 -0.43555
-0.395552 0.211665 0.200103
0.359752 0.516662 -0.43555
-0.316674 0.277095 -0.43555
-0.357806 -0.2277 -0.180245
-0.158454 0.0721796 -0.272774
-0.11898 0.159523 -0.43555
-0.357806 -0.10362 -0.000832358
-0.395552 0.325102 -0.216946
0.441922 0.0444559 0.315086
0.441922 0.486669 -0.120207
-0.0248049 -0.21629 -0.235028
-0.335976 -0.15954 -0.272774
-0.231021 0.0294838 0.394847
-0.327094 0.130811 -0.43555
0.439563 -0.493452 0.102096
0.359355 -0.176746 -0.170561
0.397099 -0.287493 -0.230539
-0.440374 -0.291543 -0.0354372
0.164548 0.599243 -0.43555
-0.0330551 0.00791846 0.319356
-0.395552 0.175363 -0.130192
-0.251816 0.679725 0.062489
0.254396 -0.332111 0.319356
-0.0387813 -0.201341 0.319356
0.441922 -0.013049 -0.432121
-0.233401 -0.488342 -0.421395
0.0312005 -0.291746 0.394847
-0.221655 -0.452633 -0.275564
-0.247342 -0.396014 0.000980124
0.453717 -0.448988 0.387995
0.397099 -0.151987 -0.262623
0.107859 0.0922659 0.394847
0.441922 0.180343 0.170385
0.204479 -0.603613 -0.14686
0.126483 -0.356824 -0.272774
-0.125713 -0.124588 -0.235028
0.359355 -0.0605218 0.00630767
0.369155 -0.485416 -0.421395
0.116206 -0.552236 0.293406
-0.213109 -0.346474 0.100273
-0.334316 0.0830936 0.394847
-0.00579894 -0.396014 -0.19455
-0.440374 0.134515 0.303848
0.193817 0.36462 -0.43555
0.441922 0.433016 0.314025
-0.440374 0.0618552 0.120582
-0.034074 -0.333347 0.319356
0.0901294 -0.139611 -0.43555
0.441922 0.599273 -0.00313941
0.356758 -0.0245954 -0.272774
0.0384262 -0.538735 -0.421395
0.441922 -0.418491 0.0329202
0.169187 0.298522 -0.272774
0.441922 0.456939 0.0710233
0.383236 0.043274 0.394847
-0.0405723 -0.452633 0.322601
0.379483 0.679725 -0.350459
0.208858 -0.452633 -0.381948
-0.157958 -0.356601 0.394847
0.334032 -0.603613 -0.215552
0.359355 0.000982405 0.254482
-0.102906 0.535983 0.423155
-0.212364 -0.489541 0.293406
-0.358307 -0.452633 -0.122971
0.3511 0.463714 0.357101
0.439563 -0.524731 -0.122352
0.441922 0.12126 -0.106731
0.441922 0.584614 -0.32977
-0.34529 -0.603613 -0.0145061
-0.115764 0.679725 0.0227578
0.070478 0.378967 0.208421
0.241301 -0.201507 -0.235028
0.439563 -0.580969 0.178683
-0.330698 -0.452633 0.371
0.264103 0.00773125 0.394847
-0.266221 -0.452633 -0.133288
-0.0526171 -0.452633 -0.355676
-0.440374 0.389223 0.107514
0.397099 -0.378242 0.230039
0.16284 0.241976 0.394847
-0.357806 -0.248429 0.0457259
0.0719021 0.679725 -0.298677
-0.00191133 -0.132666 -0.43555
-0.373007 -0.396014 0.279674
0.184872 0.679725 0.207746
0.00980554 0.0535481 -0.43555
-0.395552 0.29131 -0.0868098
-0.419612 0.427012 -0.43555
-0.357806 -0.322396 -0.151683
-0.440374 0.613378 0.245912
-0.290257 -0.602006 0.293406
0.441922 0.301505 -0.182937
0.359355 -0.264598 -0.147276
-0.387454 0.224789 -0.272774
0.0672508 -0.452633 0.39254
0.047537 0.679725 0.160667
0.243241 -0.603613 0.189263
0.441922 0.175278 -0.252374
-0.248592 0.679725 -0.415247
-0.440374 0.0821315 -0.216914
0.221616 -0.345489 -0.43555
0.324742 -0.346474 -0.030363
0.140768 0.634642 0.357101
-0.319765 -0.452633 0.0586247
-0.286483 -0.113264 0.394847
0.0599254 0.679725 -0.143004
0.333802 -0.603613 0.281529
0.228187 0.679725 -0.252838
-0.440374 0.184901 -0.36598
-0.0703023 0.679725 0.162596
-0.385479 -0.396014 0.119531
0.2511 -0.125844 0.394847
-0.329874 0.597522 -0.43555
0.377932 0.378967 0.167729
-0.377616 -0.603613 -0.219316
0.0369518 0.206801 -0.43555
-0.410378 0.623433 0.423155
-0.438569 0.0150734 -0.43555
-0.440374 -0.0733862 -0.257937
0.441922 -0.258724 0.307119
0.397099 0.310846 -0.103261
-0.340353 0.382344 0.394847
0.439563 -0.489067 -0.204074
0.0109418 0.197342 0.394847
-0.347971 0.679725 0.316894
-0.134365 0.0796978 0.394847
0.3478 0.378967 -0.23739
0.230543 0.481448 0.357101
0.359355 -0.212771 0.0413512
0.0282712 0.378967 -0.246118
0.00868787 0.136591 -0.272774
0.236432 0.581901 0.357101
-0.361579 0.679725 0.117822
-0.406067 -0.291126 -0.43555
-0.0927469 0.378967 0.264209
0.0896022 -0.396014 -0.0249637
0.47259 0.563481 0.399669
0.441922 0.0468803 -0.00481311
-0.395552 0.298121 0.213566
-0.440374 0.436449 0.293773
0.0660968 -0.346474 -0.19179
0.213021 -0.452633 -0.0441009
0.374615 0.335886 -0.43555
-0.395552 -0.228228 0.310789
0.296198 -0.219277 0.319356
-0.0129306 0.377073 -0.43555
-0.101562 -0.491441 -0.421395
-0.244921 0.561159 0.357101
-0.357806 -0.017203 0.0358578
0.439563 -0.533115 0.0112664
-0.0430135 -0.603613 0.111286
0.322926 -0.452633 0.188807
-0.243885 0.378967 0.0125871
0.359355 -0.0802896 0.224508
0.191377 -0.396014 -0.113232
0.441922 -0.425099 -0.122092
0.312577 0.679725 -0.226261
0.0525628 -0.109998 0.319356
-0.357806 -0.303042 0.134406
0.0013299 0.378967 -0.08697
-0.00544967 -0.351282 -0.272774
-0.298994 -0.379095 -0.272774
0.219765 0.37478 -0.272774
-0.0679691 0.250207 0.357101
0.359355 0.0731054 0.167933
-0.440374 0.483389 0.218257
-0.357806 0.0715593 0.24167
-0.404675 0.0120724 0.394847
-0.216899 0.378967 -0.0915021
-0.34856 -0.172546 0.394847
-0.0536313 -0.603613 -0.323513
0.441922 0.33536 -0.37151
0.441922 -0.413858 -0.345885
-0.0314699 0.0498449 0.394847
0.344355 0.0663426 -0.272774
0.441922 0.647292 0.146773
-0.13793 -0.0337249 0.319356
-0.0487173 0.462334 0.357101
-0.240414 -0.0571651 -0.235028
-0.0434615 0.705617 -0.43555
-0.438014 -0.459155 -0.155325
-0.164529 -0.126392 -0.43555
0.216583 -0.203812 0.394847
0.122232 -0.603613 -0.100054
0.213093 0.378967 -0.0572112
0.226109 -0.105982 -0.272774
-0.357806 -0.161997 -0.101093
-0.108655 0.378967 0.178469
-0.059676 -0.346474 -0.113582
-0.0317856 -0.0275851 -0.235028
0.397099 0.144277 0.0677104
-0.440374 -0.145613 0.084263
0.330725 0.650933 0.423155
-0.138016 0.582648 0.357101
0.23374 -0.396014 0.199756
-0.305295 -0.452633 -0.208372
-0.357806 -0.00400425 -0.157129
0.339646 -0.396014 0.314245
-0.230107 0.317937 -0.272774
-0.0791775 0.242529 -0.272774
-0.229456 -0.232231 0.319356
0.0660409 0.580276 0.357101
-0.283313 0.378967 0.175486
0.372385 0.218498 -0.272774
0.397099 0.186727 -0.0703046
0.24378 -0.346474 -0.17332
-0.180988 -0.247971 0.394847
-0.440374 0.440033 -0.0603723
0.441922 -0.26741 -0.0596766
0.29291 0.378967 -0.159734
0.441922 -0.0620586 -0.0234306
0.139339 0.378967 0.0522549
0.441922 -0.260177 0.13546
-0.326616 -0.603613 -0.391212
0.0277078 0.506066 0.357101
0.0353489 -0.603613 -0.163273
-0.395552 0.178588 0.0330879
-0.410203 0.625422 -0.43555
0.441922 0.0103233 0.125537
0.397099 -0.0677094 0.330535
-0.0724696 -0.25925 -0.43555
-0.213806 -0.133369 0.319356
0.154948 -0.306597 0.319356
-0.267308 0.188261 -0.43555
-0.440374 0.606908 0.162888
-0.227614 -0.452633 0.18337
0.359355 -0.164783 -0.0347591
0.441922 -0.157226 0.288668
0.2977 -0.603613 -0.353823
0.262259 0.679725 0.0501975
0.0924104 -0.601264 -0.421395
-0.233747 -0.323971 0.394847
-0.435851 0.709782 -0.43555
0.0732694 0.273922 0.357101
0.216273 0.679725 0.352148
0.441922 0.314557 0.0402968
0.441922 0.550175 0.19853
-0.0822808 -0.603613 0.285992
-0.440374 -0.359049 -0.234548
0.359355 -0.00193377 -0.0661637
0.227758 0.307621 0.357101
0.441922 0.448529 -0.194931
-0.11391 0.788731 -0.416677
-0.209131 -0.396014 0.328249
0.362028 -0.240883 -0.43555
-0.438014 -0.493852 0.131231
-0.452169 -0.323952 0.383328
0.252785 -0.346474 -0.0799985
0.271662 -0.346474 0.134007
-0.00989985 -0.396014 0.0587122
0.36823 -0.396014 0.144363
-0.0921778 -0.0914039 0.394847
-0.252004 0.004911 -0.43555
0.26263 -0.452633 -0.236512
0.19656 -0.337821 0.394847
0.441922 0.248817 -0.362265
-0.142201 -0.452633 0.071286
-0.104825 -0.293869 0.319356
0.391056 -0.603613 -0.122873
0.439286 0.679725 -0.150453
-0.221079 -0.346474 0.180718
-0.170005 -0.549009 -0.421395
-0.438044 0.679725 0.00159298
-0.331663 -0.452633 0.239801
-0.440374 -0.145946 -0.383146
-0.0718009 0.378967 -0.0440274
0.260889 -0.108949 -0.43555
0.364616 0.599572 -0.43555
0.13998 -0.396014 0.314566
0.441922 0.0550728 -0.15219
-0.358708 0.378967 0.202863
0.10239 0.424101 0.357101
0.441922 -0.0208233 -0.334575
0.186459 0.506202 0.423155
-0.376533 0.52035 0.423155
-0.350795 0.679725 -0.173039
-0.440374 -0.272803 -0.27486
0.135342 0.580686 0.423155
0.359355 -0.0143706 0.080612
-0.42446 0.191844 0.394847
0.441922 0.264868 0.296256
0.255585 0.0910458 -0.272774
-0.135441 0.378967 -0.137879
-0.440374 -0.203196 -0.235405
-0.440374 -0.263706 0.250348
0.190175 0.404638 0.357101
-0.177906 -0.452633 -0.199114
0.397099 0.222748 0.0194775
0.223071 -0.182353 -0.43555
-0.0118455 -0.452633 0.191009
-0.160884 0.378967 0.0537526
-0.395552 0.351256 0.0434319
0.122881 -0.163096 0.319356
-0.177766 0.530906 -0.43555
0.225867 0.188511 -0.43555
0.393295 0.147481 -0.43555
0.119756 0.684671 -0.43555
-0.246922 -0.603613 0.162787
-0.39399 0.378967 -0.0409212
-0.34613 0.679725 -0.315177
-0.285781 0.228467 0.357101
0.122481 -0.603613 0.0560038
0.100962 -0.231797 -0.235028
-0.217416 -0.0720301 0.394847
0.27587 0.378967 0.277379
0.397099 0.343338 -0.0179392
0.172808 -0.228466 0.319356
0.441922 -0.109723 -0.0857517
-0.00345091 0.378967 0.118663
-0.104858 -0.603613 -0.0548128
-0.438014 -0.532239 0.229026
0.106848 -0.288305 -0.43555
0.397099 -0.389477 -0.05682
0.130977 -0.396014 0.12168
-0.00560335 -0.6029 -0.421395
-0.0734401 0.332634 -0.272774
-0.120179 -0.452633 -0.101287
-0.435594 0.59121 0.357101
-0.141898 -0.396014 -0.0510435
0.397099 -0.205174 -0.104259
0.0352352 0.13404 0.357101
0.397099 -0.364304 -0.17832
0.288721 -0.452633 0.348105
0.471467 0.641253 0.357101
0.232797 -0.521901 -0.421395
-0.0440613 0.679725 0.317615
-0.325967 -0.371528 0.394847
0.381634 -0.452633 -0.243822
0.362208 0.310314 -0.272774
0.165691 -0.452633 -0.208122
-0.158066 -0.346474 0.244599
-0.471041 0.462418 0.365915
-0.0512423 -0.327391 0.394847
-0.27553 0.535761 0.423155
0.0604451 -0.603613 -0.238185
0.339635 0.422083 0.423155
-0.32519 -0.182144 -0.43555
0.430946 0.487661 -0.43555
0.441922 0.354841 0.340979
-0.161879 0.388445 0.357101
-0.440374 0.168204 -0.20131
-0.37871 -0.603613 0.0763509
-0.440374 0.603521 -0.0495365
0.228772 0.0734416 0.328915
-0.0134037 0.533236 0.423155
0.376305 0.0734416 0.288268
0.115827 -0.396014 0.240281
0.327825 -0.603613 0.106869
-0.00898616 -0.515941 0.293406
-0.357806 -0.0149164 0.237238
-0.440374 0.106954 0.0418327
-0.440374 -0.157039 -0.024973
0.110582 -0.0445932 0.394847
-0.439429 0.679725 -0.170315
-0.282362 0.679725 -0.0315188
0.319365 -0.0948444 0.319356
-0.312818 -0.00213775 0.394847
0.310534 -0.185699 -0.272774
0.311062 -0.396014 -0.215752
-0.414045 -0.452633 -0.0170115
0.226189 -0.452633 0.0583145
0.0564541 -0.603613 0.201291
-0.440374 -0.0724064 -0.334196
0.070778 0.358985 0.394847
-0.395552 0.267815 0.339469
-0.320997 -0.238275 0.319356
-0.26225 -0.452633 -0.361227
0.290881 0.679725 -0.111895
0.231332 0.460008 -0.43555
0.134695 -0.346474 0.0318566
0.441922 0.212321 0.240861
-0.231225 -0.273791 -0.43555
-0.365683 -0.396014 0.0387982
0.0273985 -0.603613 -0.0594716
0.309131 0.571745 0.423155
0.195788 -0.603613 -0.228428
-0.116909 0.621125 -0.43555
-0.322932 -0.396014 -0.0858821
0.286742 0.243586 -0.272774
-0.438014 -0.547748 -0.346254
-0.0326565 0.628087 -0.43555
-0.130115 0.480739 0.357101
-0.0884597 -0.396014 0.135672
-0.392331 0.282806 -0.43555
-0.0623575 0.331375 0.394847
-0.440374 -0.0977336 0.0224347
-0.357806 -0.182618 0.264372
-0.440374 0.489468 0.0665685
0.441922 -0.14589 -0.324892
-0.311763 -0.346474 -0.206228
-0.440374 -0.405712 0.311504
-0.395552 0.12508 -0.0674546
-0.231653 0.33583 -0.43555
-0.440374 0.403278 -0.181148
0.439563 -0.511449 -0.420759
0.411952 0.575576 0.357101
-0.356681 -0.452633 -0.3735
0.441922 0.367193 -0.229361
-0.440374 0.388602 -0.358342
-0.099709 0.0420799 0.319356
-0.256996 -0.242056 -0.272774
0.344425 0.679725 0.110533
-0.440374 0.0318626 0.199374
0.202181 -0.452633 0.361984
-0.440374 -0.00763014 -0.0701919
-0.271281 0.00592808 -0.272774
-0.0839704 -0.603613 -0.162499
-0.141751 0.651417 0.42195
-0.331955 0.651417 0.386326
-0.338357 -0.452633 0.130695
0.433821 0.186077 0.394847
-0.258921 0.309017 0.357101
0.368032 -0.603613 -0.0374415
0.441922 -0.109464 0.0492791
-0.199128 -0.452633 0.00343713
0.441922 0.607356 -0.230542
-0.291739 0.458573 0.357101
0.187722 0.289662 -0.43555
-0.266201 -0.603613 -0.348062
0.086687 -0.109324 -0.235028
-0.372597 0.378967 0.301655
-0.440374 -0.400629 0.23147
0.0957271 0.304961 -0.272774
0.0408133 -0.391397 -0.43555
0.250217 -0.300694 -0.272774
-0.0768797 -0.396014 0.352243
0.137935 0.378967 -0.184498
0.441922 -0.306432 -0.171982
-0.0141554 0.679725 -0.133554
-0.384135 -0.331312 -0.272774
0.0882778 -0.396014 -0.136982
-0.294758 -0.0561378 0.319356
0.0231365 0.278718 -0.43555
-0.134998 -0.396014 -0.171415
0.397099 -0.345715 0.00441788
0.183674 0.0523923 0.394847
0.0675796 -0.203475 0.394847
-0.440374 0.0744438 -0.331399
0.441922 -0.134867 0.212439
-0.357806 -0.327489 0.203261
0.220222 -0.0437 -0.235028
-0.440374 -0.00190583 -0.243012
-0.203686 -0.107717 -0.272774
0.0514936 0.0459554 0.394847
-0.440374 -0.09895 -0.149696
0.0602915 -0.0210906 0.319356
-0.268605 -0.452633 0.332939
-0.395552 0.0810939 0.324734
-0.0792641 -0.184614 0.394847
0.347081 0.77092 -0.43555
0.283098 0.151234 0.357101
-0.220175 0.679725 0.340424
0.359355 -0.222206 -0.233202
0.441922 -0.303517 -0.299659
0.10501 0.0173143 -0.235028
-0.349944 0.679725 0.244302
-0.357806 -0.0553591 -0.208472
-0.285961 0.0710387 -0.43555
0.319952 0.378967 0.105702
-0.438014 -0.546424 0.0493145
-0.0247154 0.503215 -0.43555
-0.356043 0.300531 -0.272774
0.25013 -0.396014 0.279941
0.183418 -0.525416 0.293406
0.154081 -0.346474 0.183779
-0.440374 -0.258749 -0.34578
-0.0385587 0.209543 -0.43555
-0.0662172 -0.452633 -0.283486
0.301923 0.356614 -0.43555
-0.110589 0.0318812 -0.235028
0.441922 -0.323242 0.21688
0.192025 0.783391 -0.416677
-0.194477 0.679725 -0.247742
0.359355 -0.220363 0.230489
-0.0699371 -0.396014 -0.0482996
0.0275913 0.679725 0.00487519
-0.103364 -0.396014 0.0427771
0.00171736 -0.268483 0.319356
0.0305727 -0.182611 0.319356
0.00831439 -0.452633 -0.148297
-0.24209 -0.603613 -0.071046
-0.437488 -0.13286 0.394847
-0.440374 0.482468 -0.28135
-0.181751 0.373546 -0.272774
-0.440374 -0.0713623 0.259932
-0.440374 0.320711 0.162571
0.354905 -0.603613 -0.411799
0.208034 0.201424 0.357101
0.393332 0.126987 -0.272774
-0.0735211 -0.452633 0.259192
-0.203656 -0.346474 -0.0291568
0.128384 -0.346474 -0.10485
-0.283912 -0.346474 0.233128
0.397099 -0.319461 0.104064
-0.438014 -0.487915 -0.30239
0.347042 0.679725 0.281966
-0.187046 0.417452 0.423155
0.086647 0.679725 0.222375
-0.163624 0.139733 0.357101
-0.195226 -0.396014 -0.119038
-0.395552 -0.245901 -0.12284
0.354767 0.679725 -0.0689504
-0.357806 -0.207635 0.15501
-0.0461681 0.679725 -0.271402
-0.440374 0.236435 -0.0949846
-0.00315753 -0.229709 0.394847
0.359355 -0.0830409 0.151663
-0.252839 -0.346474 0.297244
0.225189 -0.346474 0.0562515
-0.395552 -0.141354 0.331586
0.110869 0.155822 -0.272774
-0.190499 0.0216956 -0.235028
-0.395552 -0.312508 -0.0859249
-0.187356 0.679725 0.179258
0.289543 -0.452633 0.0244949
0.0685193 0.679725 0.0865244
0.397099 -0.219518 0.345106
0.189453 0.679725 0.0340798
0.097316 0.427624 -0.43555
0.359355 -0.293813 0.181859
0.305288 0.661961 0.357101
0.37206 -0.452633 -0.359152
0.0233489 -0.346474 0.244615
-0.000281399 0.618274 0.357101
0.397099 -0.0458366 -0.107127
0.439563 -0.519143 0.259299
-0.440374 -0.0869882 0.127273
-0.395552 0.163087 0.250924
-0.0251895 -0.0618621 0.394847
-0.440374 0.243396 0.0253499
0.385486 0.0282563 -0.43555
0.203066 -0.603613 -0.343743
0.453717 -0.304208 0.365729
0.441922 0.540691 -0.188764
-0.0760033 0.679725 -0.0594288
-0.369728 0.679725 -0.0447352
0.324017 -0.339945 0.394847
0.298341 0.626431 -0.43555
0.0424023 -0.346474 0.12713
-0.440374 -0.273271 0.0952981
0.375789 0.378967 0.246661
-0.153792 -0.333583 -0.235028
-0.440374 -0.380249 -0.168069
-0.359786 -0.603613 -0.0961469
0.441922 0.536715 0.0381854
0.0381784 0.762103 -0.43555
0.0756137 0.378967 0.00336168
0.175125 0.637762 0.423155
-0.395552 0.0142556 0.0859777
0.0764771 -0.396014 -0.244457
0.303708 0.679725 0.208106
0.359355 0.0352016 -0.19575
0.441922 0.0633109 -0.356082
0.301483 -0.396014 0.089842
0.0181741 -0.396014 0.328103
0.204623 0.031274 -0.235028
0.286302 0.522378 0.357101
-0.251569 0.0615711 0.319356
0.0108701 0.342903 0.357101
0.404529 -0.113712 -0.43555
0.161568 -0.603613 0.284986
0.397099 0.144917 0.319166
-0.192864 0.206762 0.357101
-0.0678667 -0.254635 -0.272774
0.0723576 -0.452633 -0.4352
-0.440374 0.2903 -0.255975
0.397099 0.205666 0.124689
-0.440374 -0.171603 -0.171004
-0.440374 -0.390254 0.0220183
-0.37671 0.747294 -0.416677
0.0195618 -0.396014 -0.028353
-0.383106 -0.0254448 -0.272774
-0.393881 0.0924475 -0.272774
0.290789 0.0911101 0.394847
-0.440374 0.624399 -0.264789
-0.0816186 0.355992 -0.43555
0.375301 0.411183 -0.43555
-0.395552 0.207862 0.305081
-0.175029 0.0421861 -0.43555
-0.171035 -0.452633 0.333698
0.441922 -0.0421232 0.188934
-0.230841 -0.109649 -0.43555
0.191638 -0.452633 0.219771
-0.214088 0.242835 -0.272774
0.397099 0.28812 0.342327
0.397099 0.257504 -0.209864
0.441922 -0.16832 0.142465
0.0196093 0.0175937 -0.235028
-0.172064 -0.396014 0.123183
-0.430997 0.459243 0.423155
-0.187691 -0.248673 -0.235028
0.182103 -0.396014 0.0239342
-0.31833 -0.21841 -0.235028
-0.037319 -0.513782 -0.421395
-0.133484 0.274654 -0.43555
0.160496 -0.452633 0.0958337
0.441922 0.408681 0.134085
0.441922 0.408253 -0.365833
0.359355 -0.280131 0.0500643
-0.256684 -0.174277 0.394847
-0.440374 0.235127 0.13642
-0.0796422 -0.346474 0.207058
-0.137433 0.198942 -0.272774
0.441922 0.0212354 -0.227798
-0.0585006 -0.346474 0.0541838
-0.383372 -0.603613 -0.354177
0.441922 -0.238748 0.0100397
0.315145 0.251259 -0.43555
-0.173041 -0.452633 0.252523
-0.406439 -0.452633 -0.251177
0.441922 0.199277 -0.189132
0.0884641 -0.452633 -0.296391
-0.230237 -0.346474 -0.148742
-0.160893 -0.206686 -0.43555
-0.395552 -0.152025 0.0270692
-0.395552 0.111045 0.131219
-0.339011 0.464381 0.423155
0.397099 0.0880486 0.22591
0.32774 -0.322432 0.319356
0.397099 0.0542094 0.0785592
0.441922 0.360846 -0.107809
-0.395552 -0.300559 0.0161478
-0.450948 0.0485475 0.357101
-0.0831889 0.679725 -0.196316
0.34392 -0.0280834 0.319356
0.158889 0.163658 0.394847
-0.440374 0.0187058 0.0201202
0.147361 -0.0969326 -0.272774
-0.434239 -0.603613 0.226368
0.0964228 0.293356 -0.43555
0.441922 -0.424535 0.116854
-0.3928 0.340598 0.394847
0.0371949 0.679725 -0.369187
0.441922 -0.0215227 0.303867
-0.0620315 -0.346474 -0.180396
-0.440374 0.435971 0.162748
0.441922 0.540963 -0.0812838
-0.357806 -0.199861 -0.000193426
-0.311435 0.145723 0.394847
0.163911 0.156806 -0.43555
0.0423166 -0.0941133 0.394847
-0.040564 0.460357 0.423155
0.342867 0.214458 0.394847
-0.0886739 -0.0620363 -0.235028
-0.225033 -0.603613 0.0653121
0.125554 -0.452633 0.274812
0.439563 -0.585634 -0.302049
0.271203 0.428933 0.357101
0.158699 -0.452633 -0.13807
-0.155853 -0.437781 -0.43555
-0.194001 0.483465 0.423155
0.363047 -0.0198928 0.394847
0.435326 0.510237 0.357101
0.28064 0.378967 -0.0126126
0.275095 -0.603613 -0.158942
-0.0524848 -0.452633 0.387738
-0.0903709 0.631703 0.357101
-0.395552 0.290871 -0.152957
-0.296612 -0.396014 0.299015
-0.341816 0.440482 -0.43555
-0.395552 -0.0324489 0.346973
0.397099 0.277097 0.124119
0.192761 0.034803 -0.43555
0.279853 0.378967 -0.245932
0.190091 -0.342379 -0.235028
-0.137639 -0.603613 0.224052
0.19923 0.679725 -0.312052
-0.154236 -0.452633 -0.292363
-0.188942 -0.396014 0.0514539
0.394429 0.584954 0.4668
0.199941 0.679725 0.288369
-0.440374 0.504332 -0.0463046
0.391081 -0.452633 -0.00611054
-0.440374 -0.138766 0.210426
0.397099 0.119952 -0.0510454
0.0209543 -0.107555 -0.235028
0.322783 0.365205 0.394847
-0.438014 -0.56617 -0.086454
-0.440374 -0.41406 -0.37253
-0.0551607 -0.396014 -0.237874
0.295447 -0.0481325 -0.272774
-0.144538 0.260661 0.394847
0.112894 0.0227564 0.394847
-0.450982 -0.0507385 0.39321
0.302384 -0.538424 0.293406
-0.440374 0.548681 0.19319
0.370126 -0.396014 -0.12772
-0.24382 0.75019 -0.43555
-0.307904 0.524545 0.357101
0.174513 -0.148632 0.394847
-0.121859 0.679725 -0.353138
0.292624 0.72942 -0.416677
-0.440374 0.553571 -0.341128
-0.156651 -0.372507 -0.43555
0.359355 -0.0917932 -0.167717
-0.208794 0.679725 -0.112394
-0.10563 0.50588 -0.43555
-0.440374 0.340041 -0.308749
-0.360497 -0.0627199 -0.43555
-0.395552 0.367362 0.150466
0.435752 0.679725 -0.215399
-0.395552 0.246984 -0.0227107
0.156721 -0.603613 0.125397
0.441922 0.292393 -0.432141
0.0889857 0.679725 -0.0554154
0.397099 -0.311652 0.331219
-0.219034 0.378967 0.183873
-0.440374 0.0274217 -0.124811
-0.262037 -0.452633 -0.0580969
0.29132 -0.452633 -0.374641
-0.440374 -0.304007 -0.134869
0.0194948 -0.396014 0.19022
0.441922 -0.435701 0.261374
0.193664 0.679725 0.112858
-0.37474 -0.238599 -0.272774
-0.309178 0.378967 0.0276672
0.288821 -0.21595 0.394847
0.398065 0.248144 0.394847
-0.440374 0.599305 -0.114066
0.391136 -0.396014 0.353305
0.397099 0.125416 0.171792
0.00106446 0.378967 0.273472
-0.0876447 -0.201575 -0.235028
-0.268556 -0.603613 0.223591
0.123156 0.523584 -0.43555
-0.0184044 -0.396014 -0.114962
0.216496 0.41999 0.423155
0.384692 0.679725 -0.254867
0.397099 -0.380464 0.0696579
-0.164348 -0.000676398 0.394847
0.41715 -0.0788953 0.394847
0.27188 -0.0560717 0.394847
0.112077 -0.326381 0.394847
0.397099 -0.0775141 -0.223998
0.0268965 -0.221903 -0.272774
-0.290619 -0.396014 0.125282
0.129872 -0.452633 0.365404
0.0752794 0.679725 -0.214524
-0.178997 0.183604 -0.43555
-0.00908395 -0.2872 -0.272774
-0.103331 0.679725 0.0972615
0.164483 0.679725 -0.0336228
0.311072 0.00594019 -0.43555
0.2171 -0.396014 -0.212537
0.0688416 -0.38858 0.394847
-0.206564 0.619388 0.357101
-0.440374 0.639907 0.304396
0.13328 0.215769 -0.272774
-0.140642 -0.452633 0.137677
0.397099 0.00158688 -0.0106734
0.412864 0.468292 0.423155
-0.303154 -0.119664 -0.235028
-0.201771 0.0862994 0.394847
-0.440374 0.24266 -0.393235
0.228779 -0.259199 0.319356
0.154981 -0.209186 -0.272774
-0.386574 -0.351679 0.394847
0.242513 -0.603613 0.0372381
-0.440374 0.441454 -0.130147
-0.115204 -0.603613 -0.285274
-0.440374 0.310958 0.0640016
0.04299 0.624271 -0.43555
-0.285184 0.101767 0.357101
-0.0489912 0.0818148 -0.43555
-0.363826 -0.452633 0.307148
0.397099 -0.111921 -0.040693
-0.396303 0.0636546 -0.43555
-0.204984 0.317571 0.394847
-0.207962 -0.560109 0.293406
0.404375 0.333231 0.394847
-0.0897664 -0.329156 -0.43555
0.25442 -0.346474 0.240498
-0.275461 0.357263 0.394847
0.0246295 0.584014 0.423155
0.00498374 0.378967 -0.164959
0.311027 -0.452633 -0.131811
0.441922 0.674433 -0.359671
-0.378738 -0.396014 -0.0559715
0.090094 0.486194 0.357101
-0.259915 0.378967 0.0887309
-0.149602 -0.603613 -0.0100699
-0.115618 -0.156524 0.319356
0.441922 0.0985519 -0.242872
0.133764 -0.452633 -0.348022
0.441922 0.37901 0.0132968
-0.0435202 -0.452633 -0.010638
0.0845606 -0.452633 0.070852
-0.438014 -0.534083 -0.409895
-0.359155 0.0734416 -0.0673335
-0.184686 0.718717 -0.43555
0.143442 0.378967 -0.101916
0.125585 0.378967 0.309782
-0.395552 -0.204265 0.205377
0.102848 -0.0778932 -0.43555
0.0690465 0.0152885 -0.43555
0.0727581 -0.396014 0.151989
-0.156834 -0.603613 0.286318
-0.323013 0.0693417 -0.272774
-0.171512 -0.396014 0.187663
-0.143681 -0.0963607 0.319356
-0.293995 0.378967 -0.198249
-0.0618881 0.200282 0.394847
0.129156 -0.346474 0.276632
-0.395552 -0.0208391 0.148927
-0.201069 -0.382529 -0.272774
0.182214 0.664582 -0.43555
-0.440374 0.541615 -0.169341
0.224153 -0.346474 -0.0173822
0.441922 -0.159024 -0.386178
-0.395552 0.104919 -0.00781032
0.117202 -0.053393 -0.235028
0.395165 -0.452633 0.147556
0.350379 0.0807819 0.357101
-0.238738 -0.603613 -0.15175
-0.369598 0.378967 -0.198783
-0.263227 -0.330226 -0.43555
-0.116293 0.368513 0.394847
-0.207047 -0.199808 -0.272774
-0.380949 0.130627 0.394847
-0.440374 -0.0314485 -0.381212
0.324453 -0.30991 -0.235028
0.176882 0.102861 0.357101
0.134812 -0.307942 -0.235028
-0.292845 -0.346474 0.0177516
-0.243921 0.679725 0.225105
-0.293193 0.378967 -0.0950227
-0.440374 0.568153 0.107699
0.0215671 0.378967 0.0616219
-0.357806 -0.307272 -0.221065
-0.395552 -0.0335078 -0.0108867
0.441922 -0.185064 -0.234861
-0.194332 -0.603613 -0.272975
0.118742 0.679725 -0.163117
-0.440374 0.114239 -0.123533
0.363359 -0.396014 0.0183077
0.397099 0.103852 0.0205588
0.309101 -0.396014 -0.0725036
-0.440374 -0.262206 0.181788
0.359355 -0.33092 -0.0885896
0.385985 -0.254861 0.394847
0.0472194 -0.452633 0.209742
0.441922 -0.252756 -0.382703
-0.440374 -0.332098 0.235751
0.231261 -0.417237 -0.43555
-0.440374 -0.129287 -0.287757
0.00135971 0.651417 0.420243
-0.302837 0.679725 0.0985487
-0.31283 -0.396014 -0.0134638
0.252079 0.537752 0.423155
-0.282877 -0.603613 0.0435967
0.249334 0.378967 0.218895
-0.395552 0.128156 -0.187463
0.279082 -0.603613 0.239461
0.272321 -0.452633 -0.0787328
0.441922 -0.424467 0.332681
-0.272876 -0.548245 -0.421395
-0.249188 0.537121 -0.43555
0.205554 0.143963 -0.272774
0.00914053 -0.452633 0.269645
0.12308 0.378967 0.247592
-0.395552 0.303221 0.274861
0.254124 -0.452633 -0.29741
-0.357806 -0.0792232 0.175138
-0.395552 -0.0942623 0.0643434
0.394163 0.679725 0.0100667
-0.042572 -0.603613 0.239134
0.100356 0.228881 0.394847
-0.18882 0.643011 -0.43555
0.365937 -0.42577 -0.43555
-0.440374 -0.406662 0.0942196
0.385449 0.632409 0.357101
-0.381392 -0.603613 0.150088
-0.440374 0.484269 -0.428417
0.213139 0.589649 0.423155
0.277271 -0.317636 -0.43555
0.0588851 -0.452633 -0.0679687
-0.0171898 0.382209 0.394847
0.162319 -0.0435193 -0.43555
0.128858 -0.204665 0.394847
0.397099 -0.115571 0.257297
-0.308581 0.72892 -0.43555
-0.365978 0.36915 -0.43555
-0.265719 -0.318349 -0.235028
-0.352749 -0.548137 0.293406
0.257619 -0.117771 0.319356
-0.206221 0.401874 -0.43555
0.205263 -0.019727 0.319356
-0.00940621 -0.262839 -0.43555
-0.0912203 -0.346474 0.00265755
0.397099 -0.341486 0.176594
-0.357806 -0.15455 -0.161632
0.359355 0.0548819 -0.0354865
0.317373 0.378967 0.229165
-0.395552 -0.393517 0.181487
0.141666 0.0697813 -0.43555
-0.335071 -0.603613 -0.171087
0.0120045 -0.452633 -0.210295
0.453423 0.0376372 0.391672
0.380146 0.723458 -0.416677
-0.471041 0.627227 0.420662
0.379316 -0.603613 0.0267665
0.381069 0.378967 -0.089738
-0.269183 0.679725 -0.349676
0.401137 -0.28735 -0.43555
0.14774 -0.396014 -0.231551
-0.395782 -0.484619 -0.421395
0.056496 -0.396014 0.265978
-0.440374 0.182286 0.17192
-0.288148 -0.452633 0.183195
0.397099 -0.128202 0.32879
0.397099 -0.0791878 0.104533
0.441922 0.255299 0.170094
-0.102654 -0.396014 -0.113359
0.199805 -0.396014 0.323474
0.00921969 -0.452633 0.0796834
0.441922 0.225069 -0.1022
0.441922 0.597762 0.0572593
-0.107132 0.378967 0.00504563
-0.389769 0.244459 0.394847
0.397099 0.354873 0.10696
0.41642 0.679725 0.235603
-0.440374 0.206243 -0.309548
-0.25669 0.124109 -0.272774
-0.438014 -0.472929 0.240089
0.00101882 0.679725 -0.308953
0.156173 0.738753 -0.43555
-0.0676431 -0.000115702 -0.43555
0.439563 -0.593276 0.0145682
-0.306548 -0.396014 -0.143854
0.441922 0.421465 -0.141121
0.131875 -0.452633 -0.0275856
0.439563 -0.520523 0.155819
-0.383403 -0.118341 -0.43555
0.404765 -0.603613 0.222196
0.441922 0.206064 -0.0352211
0.357611 0.54237 0.357101
0.397099 -0.13451 0.0149258
0.282013 0.679725 -0.0512941
-0.145978 -0.199288 0.394847
-0.166003 -0.603613 -0.386823
-0.395552 0.373093 -0.272662
0.139356 -0.396014 -0.0730662
0.0576957 -0.539581 0.293406
0.394163 -0.452633 -0.0828877
0.179343 0.378967 0.106798
0.396273 -0.552679 -0.421395
0.240801 0.679725 -0.355005
-0.254791 0.247065 -0.43555
-0.395552 0.196082 0.130949
0.441922 0.155256 0.110943
-0.114431 -0.346474 0.0749994
0.439563 -0.545625 -0.368475
0.441922 -0.174058 -0.141987
-0.287415 -0.396014 0.0505617
0.29133 0.493466 -0.43555
0.241889 -0.396014 0.08915
-0.357806 -0.340755 0.263329
-0.440374 0.364236 -0.226124
0.00342925 -0.452633 0.367242
-0.0961352 -0.396014 0.235666
0.0455522 0.146374 -0.43555
0.441922 -0.32425 -0.0282087
0.0911083 0.679725 0.351953
-0.155783 -0.0594712 0.394847
-0.438014 -0.58016 -0.193037
-0.33089 0.206642 -0.272774
-0.364188 -0.452633 -0.182079
0.0120371 -0.396014 0.115125
0.104839 -0.396014 0.0450758
0.441922 0.452919 -0.304349
-0.316174 -0.603613 -0.232042
0.397099 0.281034 0.00878795
-0.271492 0.439547 -0.43555
-0.318197 -0.311466 0.394847
0.0920909 -0.603613 0.255011
0.313659 -0.603613 -0.296814
0.295775 -0.497411 -0.421395
-0.323063 -0.23179 0.394847
-0.452169 0.334 0.381131
0.441922 0.630301 0.303399
-0.351198 -0.252067 -0.43555
-0.000673514 -0.603613 -0.297255
0.338558 -0.396014 0.225101
-0.123535 0.679725 0.188212
-0.309627 -0.346474 0.151809
0.41659 0.630381 -0.43555
-0.440374 -0.374527 0.143735
0.292946 -0.603613 -0.0222571
0.25699 0.398072 -0.43555
-0.0988745 0.679725 0.295973
-0.24026 0.378967 -0.268321
-0.0899508 -0.346474 0.297374
0.240109 -0.484257 0.293406
-0.395552 -0.124871 0.265072
-0.390274 0.0734416 0.188677
-0.395552 0.266262 -0.219087
-0.0973134 0.164296 0.357101
0.441922 0.181057 0.0574847
-0.292439 -0.481193 -0.421395
-0.411319 -0.270045 0.357101
-0.245723 -0.452633 0.253792
0.441922 0.10323 0.316952
0.397099 0.317576 0.184332
-0.168661 -0.0620353 -0.235028
-0.440374 -0.232949 -0.0310364
0.397099 0.172612 -0.127329
-0.440374 -0.427865 -0.204982
-0.395552 -0.0290959 0.279887
-0.395552 -0.118033 -0.0433949
0.0169521 -0.0606243 0.319356
0.276182 0.289577 0.394847
0.397099 -0.20652 0.144715
-0.413102 0.15482 -0.43555
0.132809 0.679725 -0.281499
-0.395552 -0.360733 -0.128599
0.441922 -0.430836 -0.199019
-0.100201 0.530995 0.357101
-0.0868167 0.599616 0.423155
-0.440374 0.198543 0.064851
-0.383385 0.149892 -0.272774
-0.393567 0.572429 0.400238
0.10479 -0.346474 0.138121
0.329045 -0.346474 0.123556
-0.188118 -0.452633 -0.131066
-0.395552 -0.354619 0.323383
0.453678 -0.390736 0.390425
0.332275 -0.603613 -0.134247
-0.0972818 -0.603613 0.132551
0.261243 -0.396014 -0.148064
0.355089 -0.112206 -0.272774
-0.285404 0.604563 0.423155
0.453154 0.22589 0.357101
-0.0225863 0.229447 -0.272774
0.305685 -0.155824 0.394847
-0.0608133 -0.603613 -0.00254146
0.397099 -0.198394 -0.000284702
0.441922 0.222264 -0.30273
-0.188654 -0.603613 0.175974
-0.0165835 -0.18877 -0.43555
0.107918 0.611714 -0.43555
-0.395552 0.000974023 -0.200865
-0.12187 0.217845 -0.43555
0.320461 -0.452633 -0.232421
0.397099 0.319898 0.265713
0.0432368 0.679725 0.260695
-0.440374 -0.206685 -0.371119
0.205743 -0.452633 -0.101534
-0.395552 0.331408 0.335462
-0.226067 -0.452633 0.384373
-0.395552 -0.13187 0.147624
0.223134 0.601047 -0.43555
-0.389057 -0.0954387 -0.272774
0.302848 -0.603613 0.160909
0.175518 0.679725 -0.178532
-0.26296 -0.279295 0.319356
0.207143 -0.275843 -0.43555
-0.0516782 0.378967 -0.246087
0.150508 -0.603613 -0.367616
0.412525 -0.452633 0.0715188
-0.283293 0.679725 -0.157565
0.155081 -0.179584 -0.43555
-0.146846 0.378967 0.293004
-0.187819 0.553245 0.357101
0.397099 0.200788 0.206511
0.397099 -0.115764 0.181668
-0.251775 0.378967 0.253191
0.174222 -0.424901 -0.43555
-0.440374 -0.438585 0.147079
0.184979 0.378967 0.017218
0.0938233 -0.197016 -0.43555
0.0853365 0.378967 -0.0767629
0.153875 0.48421 0.357101
0.200256 0.341044 0.394847
0.397099 0.0243202 -0.133699
0.441922 0.0665391 -0.0893571
-0.395552 0.348211 -0.155585
-0.357806 -0.0629053 -0.0426005
-0.150128 -0.296368 0.394847
0.393754 -0.5338 0.293406
0.441922 -0.24646 0.071408
-0.116194 -0.452633 0.298194
-0.395552 -0.0150729 -0.105067
-0.025102 0.06464 0.319356
-0.357806 -0.317585 0.0713773
0.225116 0.31059 -0.272774
-0.157883 -0.603613 0.0633403
-0.438014 -0.50455 -0.0175834
-0.395552 0.278907 0.0252745
0.441922 0.086496 0.0638209
-0.0166086 -0.452633 0.133839
0.0806181 -0.396014 0.339418
-0.395552 -0.160819 -0.245512
-0.129745 -0.0338739 -0.43555
-0.113703 0.419086 0.357101
0.282679 -0.396014 0.344314
0.24981 -0.578945 -0.421395
0.295355 -0.452633 0.0931121
0.383788 -0.396014 -0.237731
0.0315693 -0.396014 -0.142497
-0.440374 0.593523 -0.381726
-0.438014 -0.534651 -0.269846
-0.395552 -0.238744 0.101689
0.441922 0.144151 -0.406161
0.441922 0.196252 0.304293
-0.119978 -0.265705 -0.235028
0.291831 0.679725 -0.389087
0.298563 -0.396014 -0.0166594
0.0375283 -0.346474 -0.00708011
-0.282485 0.270813 0.394847
-0.00397622 0.556097 -0.43555
-0.303582 0.378967 0.321782
0.119315 0.649806 0.423155
-0.140779 -0.396014 0.349081
0.225017 0.378967 0.306907
-0.334581 0.00934348 -0.272774
-0.395552 0.133332 0.183336
-0.391559 -0.214471 0.394847
0.44105 -0.359651 -0.43555
-0.132746 0.679725 -0.0595368
0.323313 0.560942 -0.43555
-0.395552 0.329695 0.0957089
-0.438014 -0.602557 -0.368692
-0.398011 0.679725 -0.372807
0.441922 0.371698 0.176795
-0.440374 0.147237 -0.0165905
0.236617 0.378967 0.148158
-0.440374 0.17511 -0.0958508
-0.354122 -0.396014 -0.255345
-0.261591 -0.114031 -0.272774
-0.395577 -0.452613 0.357101
0.128371 -0.396014 -0.176602
0.0279844 0.679725 -0.259418
-0.364178 -0.334565 -0.43555
0.215251 -0.284739 0.394847
-0.00525967 -0.0639093 -0.272774
0.439563 -0.60066 -0.356827
0.281165 -0.345814 -0.235028
0.00375151 -0.603613 0.159262
0.396438 -0.603613 0.150596
-0.440374 0.234476 0.333397
0.280037 0.109813 -0.43555
-0.232598 -0.452633 -0.186272
-0.292231 -0.603613 -0.0328246
-0.440374 0.268467 0.183063
-0.0734857 -0.245441 0.319356
-0.395552 -0.193114 -0.141878
-0.420205 0.499394 0.357101
0.397099 -0.313503 -0.126268
0.296765 -0.396014 0.184217
-0.440374 0.631998 0.030941
-0.440374 0.0582218 0.274708
0.397099 -0.316403 0.262833
-0.254985 -0.452633 -0.00110246
0.0942983 -0.603613 -0.321561
-0.357806 0.040084 0.00669512
0.441922 0.144627 -0.163202
0.190255 -0.396014 -0.0314508
0.247616 0.0168719 0.319356
0.0880384 0.745089 -0.416677
0.134374 0.386599 0.394847
-0.201636 -0.346474 -0.209071
-0.372158 -0.421351 -0.43555
0.439563 -0.456705 -0.297465
-0.246474 -0.396014 0.0886005
0.441922 -0.322641 -0.234748
0.374065 -0.25911 -0.272774
0.248029 -0.0116444 -0.272774
-0.378804 -0.452633 0.0921929
0.345065 0.486051 0.423155
0.262083 0.0450594 -0.43555
0.306356 -0.164448 0.319356
-0.0958912 0.123278 0.394847
0.2015 -0.166452 -0.272774
-0.268204 0.191633 0.394847
-0.438014 -0.518368 -0.127974
0.359355 -0.165992 -0.0903174
0.398976 0.679725 0.132993
0.231129 -0.264719 -0.235028
0.00665093 -0.346474 -0.139658
0.28708 0.378967 0.338816
0.397099 0.267211 0.0664036
-0.198972 0.679725 0.0455266
0.441922 -0.355205 0.0406712
0.314451 0.0112761 -0.272774
0.00291326 0.237184 0.357101
0.22564 -0.0595457 -0.43555
-0.230844 -0.346474 0.0196442
0.187926 -0.603613 0.185595
-0.440374 -0.429587 -0.0736986
0.441922 0.434369 0.0161105
0.174603 0.291952 0.357101
-0.395552 -0.106314 0.207702
0.441922 -0.384356 0.198084
0.441922 0.060988 0.262249
0.208069 0.535063 -0.43555
