ply
format ascii 1.0
comment Created by Open3D
element vertex 1602
property double x
property double y
property double z
end_header
0.29289 -0.00105042 -0.133113
0.316671 -0.069656 -0.063765
0.0170234 -0.0437162 -0.0482608
0.297739 0.0267423 0.107084
-0.237089 -0.0206978 0.048466
0.165139 0.0323508 -0.289535
0.44601 -0.0244088 -0.321062
0.0782567 -0.0390311 -0.0588446
-0.0166887 -0.0311987 -0.0370304
-0.694947 0.0680163 0.374684
0.465105 0.00106158 0.063794
0.355715 -0.0399782 -0.146479
0.444927 0.00728253 -0.181333
-0.0747779 0.0178549 -0.000984492
0.412618 -0.0686632 -0.355055
-0.116357 -0.0217828 0.118919
0.136106 0.0182104 -0.0819926
0.258074 -0.0421016 -0.125286
0.217095 -0.016881 0.0594363
-0.173736 0.012348 0.10082
-0.63431 0.0391541 0.349806
-0.286762 0.0378961 0.118563
-0.101206 -0.0236937 0.084258
-0.542455 0.0387831 0.3005
0.306218 -0.0754365 -0.324102
0.0726824 -0.00571276 -0.203767
0.11131 -0.000949894 -0.0674045
-0.0240652 0.0473057 -0.130151
0.22569 0.0285714 -0.299333
0.42907 -0.0722364 0.101344
-0.114668 0.0264625 0.137893
0.190858 0.00295076 -0.101427
-0.396246 0.0460435 0.212025
0.398932 -0.00797295 -0.0276549
0.158415 -0.0237321 0.150287
0.252441 -0.0656838 -0.0533605
0.407054 0.0163896 -0.290067
0.342068 0.00140874 -0.0481561
0.272356 -0.0553332 0.139058
-0.0138006 -0.018563 -0.213483
-0.236961 -0.00431789 0.0183893
0.256077 -0.00386813 0.147021
0.205443 0.0366442 -0.0170379
0.118754 -0.00169604 -0.00555253
-0.0991736 -0.011855 -0.147955
0.457837 -0.0330682 -0.197568
-0.66999 0.0481514 0.378767
-0.515002 0.045458 0.211167
-0.729538 0.0323487 0.346799
0.372898 -0.0577727 -0.0442544
0.213448 0.00793333 0.00406543
0.209584 -0.0208024 -0.149293
-0.225505 0.0137605 -0.0227034
0.270833 -0.0263384 0.0972356
-0.234577 0.0323912 0.018069
0.070388 -0.0206439 0.149871
-0.488986 0.0535319 0.2747
-0.378205 0.0143667 0.172633
0.0664645 0.0384049 0.0192919
0.399105 0.0179057 -0.320836
0.199059 -0.0683896 -0.292117
0.388608 -0.0668331 0.124785
0.447294 0.0151678 -0.232522
0.116371 -0.0522326 0.128898
-0.174198 0.0283175 -0.00418461
0.372328 -0.0140426 -0.365296
0.028659 -0.0152364 -0.1671
-0.298556 0.0187161 0.0626479
0.153381 -0.0355035 -0.127282
0.257395 -0.00671176 -0.122723
0.118089 -0.0457453 -0.230477
0.107019 0.00991889 -0.285227
-0.496489 0.0374598 0.181856
0.216709 0.02288 -0.080778
-0.0815139 0.0425315 -0.0277989
-0.282083 0.000784883 0.12566
0.313738 -0.0605624 -0.144183
-0.756589 0.0412444 0.397958
0.421152 -0.0024743 -0.241229
0.318753 0.0136268 -0.174577
-0.552036 0.0378577 0.239632
-0.710077 0.0698537 0.413686
0.407048 -0.030095 -0.154053
-0.20403 0.0169813 -0.0654853
0.30055 0.0296968 -0.0738503
-0.114841 0.00847843 0.0155912
-0.0769614 0.0058659 -0.166688
0.391623 -0.0498895 -0.284176
-0.156152 0.0103987 0.0609214
0.374165 -0.0486387 -0.0976958
-0.68259 0.0533495 0.324137
0.272361 0.0254625 -0.314881
-0.129701 -0.0414073 -0.0967703
0.0366862 0.0427253 0.0715186
0.307846 -0.00137063 -0.354142
0.397762 -0.0447142 -0.0273834
0.0467498 0.0175067 0.149295
0.0641774 0.039521 -0.237683
-0.488613 0.0527691 0.244346
-0.166433 -0.0339749 -0.0798412
-0.460626 0.0390982 0.16554
-0.591571 0.036552 0.326977
0.214842 0.0154196 -0.325857
-0.0302281 -0.033065 0.128377
-0.456309 0.0505121 0.229262
0.137375 -0.0417244 -0.297892
0.243312 -0.00649621 0.0844186
-0.616339 0.0626617 0.343626
-0.319175 0.0397469 0.116758
0.0183353 0.0142102 0.0247346
-0.303576 0.00581097 0.0358469
0.36196 -0.0726281 -0.353617
0.416041 -0.0530233 0.0729498
-0.204709 -0.00543814 0.0560787
0.243365 0.0336586 -0.0485271
-0.194255 0.0434113 -0.0398533
0.108573 0.0281869 0.147825
0.45813 -0.0685358 -0.0101579
0.208289 0.0252884 0.0444026
0.182951 -0.0631749 -0.11952
0.116559 -0.0521756 0.068904
-0.654391 0.0274553 0.326328
-0.0504205 0.0174249 0.14436
0.100299 -0.00110741 -0.104314
0.117856 0.0423045 0.0642697
0.446068 0.00666282 -0.293123
0.386565 0.0212602 0.101364
-0.399287 0.0459078 0.177211
0.447778 -0.0610847 -0.281755
0.270198 -0.0145286 -0.28056
-0.0822994 0.0448891 0.116639
0.229796 -0.014569 -0.0163571
0.2384 -0.00985488 -0.338621
-0.217645 0.015004 0.104441
0.0838786 -0.00741645 -0.0555346
0.444537 -0.0544731 -0.310346
0.293052 -0.0740251 -0.297837
-0.258668 0.0342089 0.0348013
0.313762 0.00136729 0.142362
0.122913 -0.0529321 0.0149798
0.336667 -0.0480946 -0.0975735
0.20888 0.0393562 0.102291
-0.337607 0.00294144 0.0809604
0.435438 -0.076421 -0.0548217
-0.113885 0.0414506 -0.127297
-0.0698606 -0.034976 -0.0166027
0.195656 0.0345073 -0.127532
0.402349 -0.0804927 -0.300955
0.0203375 -0.0356403 -0.148034
-0.0802351 -0.0225797 0.034137
-0.126582 0.00841003 0.0493106
0.19068 -0.0611168 -0.0142378
0.0275191 -0.040598 0.115302
0.038619 0.000535133 -0.104765
0.418134 0.0236956 -0.0380076
-0.757323 0.0656411 0.441489
0.402036 -0.0151784 -0.366744
-0.0253243 -0.0336588 0.0936096
-0.576446 0.0215172 0.269806
0.362843 -0.078732 -0.323483
0.456765 -0.0454821 -0.223665
0.46743 -0.0248461 -0.0344012
0.104861 0.0104298 -0.22227
0.0233531 0.0212696 -0.141957
0.386242 -0.0686363 -0.181977
-0.285775 -0.0126944 0.0699859
0.367452 -0.00550032 0.137523
0.115556 0.0437595 0.0966563
0.279383 -0.0678269 -0.0766401
-0.861804 0.0488975 0.449351
0.150076 0.0202985 -0.12412
-0.163031 0.0254407 -0.0951288
0.0500007 -0.0434747 0.0704212
0.0233106 -0.0387689 0.143411
-0.441405 0.0323124 0.245291
-0.816827 0.0546127 0.448358
-0.031481 -0.0499714 -0.0898437
0.269761 -0.0121482 -0.167342
0.448143 0.0220209 -0.0347204
0.131939 0.000540315 -0.235097
0.147008 -0.0375212 -0.0873026
-0.700599 0.031473 0.323539
0.294485 -0.0643885 -0.16783
0.20226 -0.0424903 0.0274041
-0.0602851 -0.0483371 -0.161854
-0.78381 0.0493949 0.426103
0.0154876 0.0437667 -0.180382
-0.388652 0.00680686 0.117063
0.0799313 -0.0474428 0.109897
0.456261 -0.0386611 -0.0650407
0.32996 -0.0374393 -0.288412
0.257419 -0.0722986 -0.312472
-0.316464 0.0380349 0.0530765
0.139479 -0.0552171 0.10219
-0.110546 0.0078411 -0.013216
0.176927 -0.0581416 0.0747312
0.096107 -0.00990566 0.151267
-0.071671 0.0331912 -0.16487
-0.0987093 -0.0465692 -0.111551
0.415121 0.0107738 -0.0898022
0.061967 -0.057184 -0.207902
0.391376 -0.0740686 -0.0640023
0.312692 -0.0391844 0.141534
0.460738 -0.013969 0.0902799
-0.101831 0.0434932 0.0850114
0.143908 0.00780379 -0.302573
-0.127499 0.0504696 -0.0952874
-0.110077 -0.0287509 -0.00918272
0.103783 -0.0619179 -0.255277
0.271973 0.036038 0.117525
0.276376 0.0282532 -0.143246
0.125811 0.0403832 0.021636
0.0076966 0.0100329 -0.228344
-0.578285 0.0592461 0.294836
0.0469478 -0.00872323 -0.188025
-0.727191 0.060929 0.367146
-0.527974 0.0557558 0.272387
0.455691 -0.0617935 0.0811024
0.352441 0.0055291 -0.148497
0.216181 -0.0281965 -0.0879545
0.351329 0.0207452 -0.318952
-0.103922 0.00125744 0.140027
0.0954407 0.025391 -0.0990792
-0.424306 0.022908 0.218942
-0.365204 0.0431926 0.147645
-0.0703425 -0.00223181 0.143148
0.0632271 0.0437336 -0.067333
0.300724 -0.0214708 -0.0458835
-0.202604 -0.0200936 -0.025031
0.393281 0.00805976 0.132518
-0.683106 0.064383 0.350489
-0.422962 0.0277765 0.135816
0.291517 -0.0423814 -0.133789
0.0766908 -0.033008 -0.207061
0.320486 0.0219763 -0.342382
0.147467 0.0131874 -0.0207002
-0.308731 0.0028233 0.120961
0.00133989 0.0242759 -0.03956
-0.0867224 -0.00243285 0.0680999
-0.582946 0.0607052 0.343457
0.143949 0.0435232 0.117477
0.427808 0.0264697 0.0988689
0.362616 -0.0062278 -0.291447
0.227455 0.019768 -0.151731
0.0409569 -0.0112145 -0.250385
0.408561 0.0235557 -0.066647
0.0556196 -0.026726 0.0195572
0.157135 0.00318186 0.150786
0.24523 -0.0349708 -0.160263
-0.027315 0.0485939 -0.0851243
0.340727 0.0219732 0.107325
0.219743 -0.0554524 0.139747
0.0157269 0.0438424 -0.127475
0.13357 0.0387987 -0.101012
-0.0542642 -0.0299385 0.140015
-0.110793 -0.0368673 -0.0568601
-0.0752525 -0.0441338 -0.0736835
0.135843 -0.00570447 -0.120504
-0.274667 0.0575216 0.0403932
0.214715 -0.0565757 0.0776826
0.193386 0.0304461 -0.273258
0.24711 -0.0607417 0.132163
-0.650914 0.0657012 0.385312
-0.601166 0.0224582 0.249129
0.376916 0.0254189 -0.0661288
-0.33658 0.00942354 0.137496
-0.162636 -0.0298846 -0.0533501
-0.0360169 0.0301517 -0.192581
-0.775892 0.054505 0.385319
0.21367 -0.0193661 0.149267
-0.261152 -0.0012525 0.0923246
-0.377468 0.026591 0.19625
0.412755 -0.00919475 -0.209059
-0.610173 0.0239857 0.290132
0.411991 -0.0466821 -0.261736
-0.0791801 0.0425128 0.0637515
0.37454 -0.00453137 -0.18336
0.33806 0.0185741 -0.094849
0.190378 0.00420366 -0.321541
0.371464 -5.14164e-05 -0.043898
0.296313 -0.0509465 -0.285313
-0.283436 0.0178104 0.0203831
-0.171808 0.00922975 -0.0223241
0.343094 0.00956033 0.138112
0.214478 -0.0217517 -0.266607
-0.52256 0.0274905 0.191205
0.133474 -0.054358 0.0479427
0.253173 0.0210146 -0.158397
-0.36084 0.0238375 0.123272
0.173681 -0.0586452 0.0463208
-0.150448 -0.00753355 0.100214
0.141179 -0.0645988 -0.275508
-0.619994 0.0522551 0.286319
0.169492 -0.0396549 -0.251693
0.440698 0.0251319 0.0749312
-0.49369 0.0339996 0.221338
0.0348136 -0.0563591 -0.194726
-0.0779821 -0.0268026 0.114662
-0.152708 0.0495328 -0.0886239
-0.182055 0.0107003 0.0133621
-0.364355 0.0349136 0.0807843
-0.0205728 0.0422786 0.0600509
0.418308 -0.0345781 -0.360886
0.455674 0.0213276 -0.00798889
0.191196 -0.0601189 0.0116667
0.101002 -0.04705 -0.101502
0.124827 -0.0279281 0.149836
0.296902 -0.053444 0.108052
0.307684 -0.0650382 -0.347693
-0.00283435 -0.0365191 0.0353059
-0.12222 0.00901834 0.0861337
0.457462 -0.0658838 0.0465468
0.265968 -0.0416498 -0.344682
0.166646 -0.0296369 -0.313071
0.016927 0.0459212 -0.0886519
-0.00282813 -0.0365833 0.0817097
0.240087 -0.0541705 -0.107773
-0.167597 -0.00599982 0.121959
-0.477675 0.0141356 0.204
-0.85544 0.0669033 0.470587
0.421662 -0.080332 -0.333279
0.436316 -0.0805735 -0.255136
-0.0871224 0.0188197 0.0383869
-0.142892 0.00569905 -0.112538
-0.25845 0.0129107 0.118422
-0.314032 0.00190202 0.0948594
-0.200741 0.0135543 0.0855129
-0.0314033 0.0442725 -0.0400429
0.0775986 0.041433 0.043784
-0.0219708 0.0295237 0.144726
0.0566144 -0.0581292 -0.240035
0.419618 -0.00295826 -0.160224
-0.0684253 0.0487876 -0.078893
0.252112 0.00441714 -0.0327639
-0.108687 0.0479265 -0.0734949
-0.156802 0.0257744 -0.0666988
0.299047 -0.0033676 0.101083
-0.178043 -0.00719468 0.0457457
-0.13991 0.0438455 -0.0411248
0.264427 -0.0621158 -0.161008
0.281467 -0.0500315 -0.105666
0.379387 -0.0419452 0.135106
0.376164 -0.00380906 -0.100118
0.151472 0.0126713 -0.245178
0.230047 0.0385956 0.12183
-0.228156 0.0126382 -0.0476287
0.130013 -0.0149442 -0.0764877
0.205996 -0.0611645 -0.141597
0.251468 -0.0645377 -0.1342
-0.463056 0.0230313 0.236859
-0.012101 -0.0515538 -0.108251
-0.216754 0.0318534 0.038705
0.385781 -0.0420757 -0.185961
0.086458 0.043888 0.0987517
-0.617066 0.0633125 0.368554
0.334028 -0.0513652 0.137214
0.284548 0.00131236 -0.109738
-0.695692 0.0387334 0.370592
-0.583623 0.0478798 0.255512
0.423415 -0.0302245 0.0277637
-0.241457 0.0155015 0.0677693
-0.0991456 -0.00912635 0.0232931
0.268967 -0.035746 -0.040331
0.339851 -0.0623386 -0.0524185
0.452002 0.00235592 -0.267542
-0.282581 0.0369603 0.090252
-0.655377 0.0455026 0.30524
-0.455098 0.0310948 0.194772
0.368115 -0.0652196 0.111002
-0.249684 0.0508198 0.0861389
-0.0582477 -0.0146115 -0.180726
0.0219147 0.0442901 0.106021
-0.152751 0.0398246 -0.00847699
-0.0878405 0.0508882 -0.136138
-0.010189 -0.0533342 -0.176627
0.17927 -0.056984 0.127757
-0.171658 0.0453108 -0.0545709
0.302591 0.0237132 -0.314098
0.205141 0.0389821 0.0780163
-0.24028 0.0297911 -0.0114294
0.238818 0.0316202 -0.101851
0.0976004 0.0340607 -0.226536
0.406804 -0.0373688 -0.201972
0.0314104 -0.0410726 0.0904561
0.465502 -0.0410063 0.032568
-0.212932 0.0124392 0.0106543
0.254405 0.0184342 0.0916075
0.46794 -0.00331267 -0.00191613
-0.0298291 0.0412775 0.0375091
0.389194 -0.0657294 -0.36116
-0.474849 0.0313466 0.262616
-0.151326 -0.0230035 -0.00527791
0.114859 0.0360577 -0.258142
0.446303 0.0173917 -0.206345
0.440971 0.00298393 -0.0804558
0.177076 0.0385158 -0.00836818
-0.531981 0.0567879 0.313002
-0.35959 0.00489177 0.108224
0.0824838 -0.0476676 0.0306052
0.183897 0.0405749 0.134615
0.102588 -0.0257902 -0.283971
0.407729 -0.0776936 -0.175486
0.343774 -0.025585 0.102761
0.455704 -0.0335366 -0.261722
0.419471 -0.0504004 0.00380325
0.457629 0.0131449 -0.0550372
0.336306 0.0254884 -0.160613
0.171553 0.0191721 -0.309471
0.426329 0.00329896 0.0508609
-0.0239087 0.0446352 0.112514
0.160064 0.0412382 0.0624541
-0.0541606 0.0134454 -0.0159322
0.374854 0.019256 -0.32358
0.367054 0.00984428 -0.357807
-0.0749219 0.0507276 -0.11177
0.190056 -0.00805378 -0.142338
0.44971 -0.0683917 -0.224084
0.305118 0.0274708 -0.154086
-0.0363951 -0.047049 -0.184854
0.344115 -0.0642206 -0.151317
0.415537 -0.0556234 -0.224042
0.387377 0.00624933 -0.155406
0.438886 -0.0748251 0.0188224
0.234971 -0.00202351 -0.272983
0.299972 -0.00112503 -0.173776
0.0487271 -0.0488874 -0.0917028
0.0927991 -0.0568866 -0.0804858
0.250263 0.0270148 -0.304239
0.0681516 -0.00339454 0.0137995
-0.0612344 0.0454145 0.128904
0.416122 -0.0429545 -0.0914769
-0.0205863 0.0463264 -0.161905
0.224822 0.0327083 -0.13189
-0.423588 0.0290802 0.187739
0.101574 0.039349 0.00968843
0.212096 -0.0165712 0.00568
0.263119 0.00253624 -0.343745
-0.69008 0.0496343 0.391372
0.416791 0.014461 -0.348344
0.264332 -0.0261332 0.14631
-0.0873048 -0.0254637 0.0568901
0.143796 0.03424 -0.263258
0.325114 -0.00314686 -0.101268
0.441206 0.0231981 0.0106367
0.250814 -0.0661647 -0.0769572
0.400738 0.0046244 -0.190933
0.428193 -0.0815341 -0.281681
0.131166 0.0213659 0.149198
0.127172 -0.0240782 -0.232821
0.419812 -0.0711276 -0.0801666
-0.788923 0.0623301 0.405202
-0.0531553 0.0311839 0.0313037
0.0869357 -0.025387 -0.0977331
-0.561526 0.0224758 0.219512
0.414085 -0.00546197 0.129627
-0.174853 0.0207908 0.0471779
0.170854 -0.0305976 -0.0949091
-0.497855 0.0146445 0.176503
0.000888063 0.0438445 0.140329
0.310563 -0.00255617 -0.287907
0.329151 0.0264148 -0.0611525
0.0503603 0.0299476 -0.0506899
-0.731551 0.0493783 0.408334
0.250791 -0.0502916 -0.277173
0.225981 -0.0381129 -0.0161882
0.0254558 -0.0495423 -0.105568
0.46162 0.015746 0.0387123
0.206802 -0.0429462 -0.326073
0.332251 -0.0400197 -0.179142
-0.322861 0.0204789 0.0766297
0.0860694 0.0422361 -0.0739581
0.0155197 0.0438797 -0.0532351
0.17153 0.0271019 -0.130098
0.327491 -0.070456 -0.0843668
0.348727 -0.0178873 -0.144324
0.103391 -0.0174852 0.00183944
-0.596527 0.0418371 0.296044
-0.203833 0.0126361 0.0404813
0.222551 -0.00397591 -0.0966107
0.00695875 -0.0374569 -0.223541
-0.813141 0.0429481 0.420812
0.0321286 -0.00103591 -0.0419704
0.0144367 -0.0521704 -0.069959
0.307145 -0.0454354 -0.174605
0.0895431 0.0198249 -0.273693
-0.718115 0.0340058 0.366879
-0.393812 0.0266231 0.158374
0.13318 -0.0514688 -0.115391
0.431807 -0.0800056 -0.21039
-0.259729 -0.0222087 0.0426005
-0.761382 0.0501121 0.420662
0.212215 0.00268443 0.0468846
-0.139253 0.00816961 0.0122523
0.143919 -0.044452 -0.241894
-0.546176 0.0396557 0.323215
0.23269 -0.0637439 -0.0390905
-0.0983601 0.0456466 0.133115
0.0351287 0.0379002 -0.23207
0.0589171 0.0430424 0.140916
-0.512102 0.0355737 0.241712
-0.430244 0.0100401 0.149867
0.349205 -0.0774853 -0.305071
0.0568859 0.0200509 -0.195699
-0.342663 0.0220271 0.0926417
-0.0663786 -0.0051459 -0.00824693
-0.742154 0.05248 0.383207
0.141495 -0.055014 -0.00571731
-0.246731 0.0164487 0.0939505
0.216753 -0.0431214 -0.150606
-0.195275 0.0108702 -0.011359
0.366219 0.0241764 -0.087942
0.443343 -0.00176961 -0.321906
0.255601 -0.0435079 0.0957444
0.437592 -0.0742157 -0.183212
-0.19674 -0.00487232 0.0983113
-0.650378 0.0467233 0.36725
0.275819 -0.0418063 -0.28156
0.465172 -0.0468583 -0.0263688
-0.322163 0.0267423 0.156657
0.445212 -0.0520429 -0.177783
-0.403072 0.0339249 0.120922
0.0463529 -0.0388062 -0.0501458
0.240659 -0.0671637 -0.326863
-0.0502858 -0.0473412 -0.074468
-0.847254 0.0671614 0.449447
-0.657925 0.0268397 0.292644
0.0920447 0.0194115 -0.0610654
-0.211996 0.0295984 -0.0324312
-0.662605 0.0466529 0.33504
-0.341643 0.0423802 0.170813
0.184006 -0.067058 -0.273642
0.353757 0.0145419 -0.296889
0.383857 -0.0418892 0.0967289
0.272277 0.0311155 -0.0834465
0.377837 -0.0372362 -0.149667
0.461434 -0.0372051 0.0833564
0.135492 0.0414102 0.138809
-0.0377983 -0.0376414 -0.0327981
0.156667 0.013289 -0.0896032
0.225339 0.0337933 -0.0296778
-0.11564 0.010778 0.116707
0.223405 0.0247339 -0.277344
0.410866 -0.059095 -0.0162317
-0.301885 0.0198353 0.100552
0.193757 0.0131418 -0.0578394
-0.0100512 -0.0525683 -0.144901
0.419414 0.000182789 -0.00270994
-0.707218 0.0310368 0.346499
-0.0622562 0.0444797 -0.0430637
0.29215 -0.0310639 0.101968
0.0334177 -0.0183702 0.0233666
0.213076 -0.035262 -0.110496
0.0129165 0.0419729 0.0541294
0.0091495 -0.0550005 -0.198555
-0.273915 0.0182674 0.103308
-0.0287368 -0.00133333 -0.203686
-0.258817 -0.000519827 0.0164773
0.0713113 -0.0554648 -0.0721487
0.164266 0.00409381 -0.0331711
0.207596 0.0128402 0.024946
0.0959703 0.0446321 0.137367
0.0589057 0.0122993 -0.0964294
-0.230525 -0.00378005 0.062139
0.0247231 0.0258594 0.147441
-0.0471199 -0.030751 0.0517542
0.0246216 -0.0288877 -0.119146
-0.248743 0.0392754 0.0633753
0.423986 -0.0280327 0.126303
-0.457391 0.0500364 0.207164
0.0679247 0.0423366 0.0636645
-0.11377 0.0400609 -0.00876819
0.191622 -0.0521776 -0.0504288
0.307913 -0.0515496 -0.0494121
-0.140521 0.0148009 -0.0542299
-0.626277 0.0244344 0.269939
0.0282932 -0.0368476 -0.171112
-0.206565 0.0381427 -0.0601276
-0.505388 0.0164062 0.230665
-0.0255056 -0.0122425 -0.0302736
-0.0599711 -0.0492584 -0.128919
-0.0263419 -0.0333853 0.0351971
0.272112 0.0111189 -0.130244
0.450542 -0.0138716 -0.180042
-0.0455271 -0.0309935 0.0763012
0.361379 0.0175306 -0.052234
0.230016 -0.041827 -0.271383
0.388873 -0.013026 -0.287344
-0.409871 0.00978003 0.174795
-0.559717 0.0394661 0.287126
0.30303 -0.0092248 -0.104774
-0.348491 0.0237412 0.148898
-0.621398 0.0441916 0.332933
-0.181408 0.0280822 -0.0311047
-0.0807201 -0.026413 0.091251
-0.568524 0.0410319 0.330148
-0.00314628 -0.0366123 0.133147
0.413948 -0.0292929 0.0723539
0.0648645 -0.00908698 -0.264471
-0.137652 0.0102743 0.102298
-0.508172 0.0542231 0.257051
-0.285644 0.0404661 0.0587462
-0.657715 0.0478716 0.396708
0.467919 -0.0217496 0.0146606
0.413766 0.000506117 -0.268968
-0.245666 -0.00347745 0.0382656
-0.0488868 0.0430942 0.0775106
-0.11879 0.0297092 0.012816
0.388335 0.0205099 -0.176154
-0.0796931 -0.00381528 0.0476722
-0.528147 0.0172186 0.2094
-0.114872 -0.0101989 0.0743592
-0.237886 0.0380525 0.0392657
0.196245 0.0224354 -0.109006
-0.137936 -0.00931704 0.0540092
0.186994 0.0041591 -0.258347
0.182106 0.03932 0.0366521
-0.478604 0.0288574 0.159524
-0.332701 0.0401293 0.100027
0.115684 0.0252583 -0.00166845
-0.563446 0.0390236 0.260047
0.21651 -0.0390404 0.0654676
-0.634893 0.0256065 0.297314
-0.382555 0.0252625 0.129606
0.0294487 -0.0429359 -0.236689
0.0458928 0.0441865 -0.0863637
-0.233858 0.0135584 0.00634531
0.358489 -0.0711866 -0.0580798
-0.102811 -0.037031 -0.136433
0.429168 0.0170176 -0.285159
0.0255967 0.0287475 -0.161835
0.423952 -0.0514895 0.0531905
0.0155953 0.0381075 0.0282995
0.103502 -0.0466303 0.00878995
0.168521 -0.0164251 -0.0371091
-0.137613 0.00733331 -0.0180929
-0.452149 0.011634 0.16267
-0.53328 0.0373334 0.263089
-0.164267 0.0100028 0.027431
0.119929 -0.0631988 -0.26905
-0.0727187 0.0393925 -0.00870083
0.35951 -0.0559954 -0.290547
0.212841 -0.0630527 -0.0617649
0.354178 -0.0223569 -0.182102
-0.197321 -0.00696876 -0.0692968
0.0370427 -0.0417514 0.0489966
0.094621 -0.0376051 -0.217399
0.170437 -0.0247166 -0.134768
-0.17922 0.0169596 -0.0570052
-0.00396911 -0.0475308 -0.0491406
-0.698638 0.06875 0.395914
0.164075 -0.0537352 -0.128277
-0.542207 0.0569683 0.287978
-0.580183 0.040464 0.278942
0.0110957 -0.00373963 0.148821
-0.452443 0.0484508 0.183023
0.029543 0.00774472 -0.166995
-0.502596 0.0362048 0.290358
-0.790046 0.0730248 0.431094
-0.12302 -0.00919268 0.096761
-0.257631 -0.0022546 0.0596871
0.056602 0.0448507 0.119444
-0.0871586 0.00328549 0.0111838
-0.742354 0.071747 0.413959
0.193592 -0.0213734 -0.0603783
0.429314 0.0166652 0.117447
-0.0017939 0.047312 -0.0765136
-0.308075 0.000913385 0.068617
-0.139502 0.0256448 -0.0305597
-0.412232 0.0470674 0.193746
0.169147 0.0421045 0.119716
-0.0452939 0.0486965 -0.124017
0.0366862 0.0240956 0.0222288
0.256587 -0.0198832 -0.0344945
0.283001 -0.0738862 -0.316216
-0.155229 0.0110246 0.0909297
-0.317887 0.0214488 0.128323
-0.754729 0.0667106 0.396302
-0.268023 0.0164217 0.0418088
0.331713 0.00648353 -0.35558
-0.161429 0.00472596 -0.0976958
0.362734 -0.0258731 0.13841
-0.203431 0.0136869 0.120453
-0.0235615 -0.0131845 0.0305348
0.411338 -0.0709203 0.112317
-0.70172 0.0509297 0.416565
0.416909 -0.025014 -0.250581
0.0731684 -0.0465256 0.0860705
0.338928 -0.0191837 -0.0467872
-0.01547 0.00983495 0.147045
0.288857 -0.0523756 -0.348045
0.326783 -0.0765588 -0.320837
-0.141163 -0.030924 -0.0440379
0.287694 0.00101909 -0.34954
0.197299 0.0172383 0.147943
-0.231574 0.0560532 0.0707663
-0.269423 0.0318751 0.010247
0.444929 -0.0762293 -0.0242289
-0.668446 0.0662328 0.365085
0.272926 -0.0276949 -0.127037
-0.475944 0.0320513 0.184012
0.185751 -0.0235248 -0.321386
0.254396 0.0175026 -0.115458
0.232633 -0.0611023 -0.126323
-0.812074 0.0757192 0.449858
0.37175 -0.07328 -0.0825107
0.433118 -0.0719151 0.0394387
-0.213932 -0.00317588 -0.057344
-0.568838 0.0205763 0.249471
0.161568 0.0405635 0.03839
-0.522638 0.0372629 0.285654
-0.469827 0.0325694 0.219898
-0.220048 -0.00487542 0.0423373
0.222519 -0.00535627 -0.153593
0.274627 0.00538505 -0.283245
0.44926 -0.0223382 -0.0754234
-0.218583 0.0142797 0.0724928
-0.435508 0.029274 0.167094
0.193427 -0.0496936 -0.108112
0.359636 -0.0330298 -0.100357
-0.00947915 0.0147605 0.0281077
-0.310334 0.0396816 0.135257
0.186089 0.0374722 -0.0295182
0.156963 -0.0329345 -0.0263533
0.250586 0.0157782 0.145158
0.272451 0.0196892 -0.337586
-0.547385 0.0556584 0.253487
-0.403641 0.0456735 0.157212
0.128361 -0.0440064 -0.0819584
0.235624 -0.0031023 -0.112316
0.291385 0.0294512 -0.0923733
-0.527129 0.0360359 0.224649
-0.119361 0.0456508 0.132671
0.223025 0.0269309 0.143492
0.388586 0.00226887 0.0941391
0.427664 0.0123356 -0.17108
0.114659 0.040093 -0.0931785
-0.390575 0.00711465 0.0967558
-0.121477 -0.00376865 0.130948
0.180441 0.0404236 0.0779002
-0.399074 0.00784421 0.13458
0.149113 -0.0121068 -0.30672
0.366158 -0.0411296 -0.364115
0.434898 -0.0649823 -0.331679
-0.322173 0.0210281 0.100788
0.223044 0.0345757 -0.0596177
0.434286 -0.0730655 0.0798733
-0.677104 0.067209 0.384362
0.219701 -0.00311785 -0.332589
-0.354552 0.0149097 0.0717663
0.0283771 -0.0213278 -0.0426958
-0.132847 -0.0168292 -0.118565
0.326535 -0.0478024 -0.356939
0.43891 -0.0122964 -0.338645
0.277353 0.0245464 0.101655
-0.543197 0.0185316 0.227135
-0.1887 -0.00876676 -0.0156638
-0.207681 -0.000525009 -0.0243283
0.415505 -0.0693617 0.086601
-0.0753385 -0.0376186 -0.035879
-0.219056 0.0325518 0.0618219
-0.112857 0.0451492 -0.0507448
0.179795 -0.0208159 0.150186
-0.360202 0.0250355 0.173871
-0.337018 0.0224136 0.122023
-0.369238 0.0251174 0.155612
-0.00612877 0.0317435 -0.212091
0.410422 -0.0129203 -0.0951081
0.273838 0.00546381 0.145171
0.310416 -0.015395 -0.136299
-0.436764 0.0370193 0.147199
0.450751 -0.00886417 0.106998
-0.181225 0.0122962 0.080747
0.0524008 -0.0144716 -0.0971413
0.318752 -0.0126477 -0.0471509
-0.478791 0.0517339 0.225433
0.25279 0.0370162 0.111623
-0.0446255 0.0481596 -0.14441
0.414752 0.0200467 -0.187094
-0.232907 -0.00275825 0.0983113
0.0986843 0.0447139 0.117482
0.207649 -0.036319 0.0472846
-0.160661 0.0119635 0.116377
-0.367034 0.0427595 0.125524
-0.392912 0.0270936 0.179821
-0.0792402 0.04346 0.0848642
-0.634749 0.0641198 0.359249
0.13017 -0.0477163 0.143884
0.0627473 -0.00092295 -0.0486919
0.35972 0.0113594 -0.179725
0.0583181 -0.00479148 0.150616
0.405412 0.00380054 -0.361652
-0.142054 0.00750741 0.0367682
0.203142 -0.0125026 -0.1052
-0.0525108 0.0277869 -0.181645
0.381858 -0.0381378 -0.0374304
-0.25188 0.0151087 0.0267046
-0.430472 0.00953339 0.128531
0.28379 0.00606176 -0.0445726
0.294035 -0.0175142 -0.353058
0.203177 -0.0592142 0.0936697
-0.220351 0.013348 0.0294208
-0.297231 0.0201244 0.123557
0.201884 -0.0651014 -0.313934
-0.560878 0.0400391 0.307816
0.421258 -0.0749204 -0.027345
0.0763519 -0.0352765 -0.268012
-0.382027 0.0451834 0.188921
0.126834 -0.0535435 0.0870508
-0.772037 0.0356608 0.380657
-0.269084 0.0174694 0.0822113
-0.12429 -0.0101067 0.0397113
-0.106274 0.00705247 0.0432181
0.181739 -0.0598712 -0.0318146
0.124794 0.00932923 -0.293796
0.343777 -0.0640931 -0.176999
0.0313855 0.0423346 -0.191991
-0.218109 -0.00329298 0.111825
-0.155991 -0.0259321 -0.0256299
-0.124647 -0.0386922 -0.0773738
-0.0475354 0.00486897 0.0305192
-0.613741 0.0430745 0.305508
-0.0300954 0.0482819 -0.1046
0.256274 -0.0603365 -0.336684
0.417764 -0.0720561 -0.251214
0.35256 -0.0219849 -0.363211
0.145849 -0.055955 0.0328074
0.298027 -0.0397948 -0.103451
-0.109145 0.00771052 0.0636852
0.0420388 -0.0333573 0.146432
-0.209057 0.0309642 0.0207261
0.404089 0.0200001 0.0927381
0.295555 0.0348359 0.124767
0.010421 -0.0382714 0.0497842
0.14812 -0.0553373 0.120602
-0.362932 0.0234645 0.102966
-0.24319 -0.00755739 0.0792049
0.367557 0.0173295 0.103594
-0.111029 0.0229898 -0.137333
0.42238 -0.0142198 0.0141694
0.0859139 -0.0115441 0.00816195
0.0617504 0.014916 0.0159052
-0.0966823 0.00738719 0.0817024
-0.269912 -0.0212076 0.059199
0.1688 0.00390935 -0.251368
0.103872 0.00952302 0.150854
0.237281 -0.0707783 -0.298425
-0.165344 -0.00701747 0.0856756
0.458431 0.0182632 0.0708046
0.433525 0.00634778 -0.33747
0.387809 0.0275392 0.121446
0.377429 -0.0246305 -0.18413
-0.616361 0.0446362 0.363209
-0.77772 0.039807 0.401783
-0.706755 0.049084 0.328873
0.0250226 0.00850226 -0.126231
0.263415 0.0320544 -0.0662273
-0.436513 0.0302336 0.204035
-0.302539 0.0385033 0.105643
0.289082 -0.0358475 0.14369
0.198946 -0.0532606 0.141379
-0.0475614 0.044458 0.107949
0.375551 -0.0572815 -0.153122
0.287515 -0.0386611 -0.0450431
-0.106667 0.0270335 0.0939609
0.0219562 -0.000768541 -0.23841
0.344625 -0.00274789 0.102155
0.321945 -0.0161515 0.142332
-0.00505412 -0.00279348 -0.220461
-0.498154 0.0527868 0.222178
0.0944946 0.041833 0.0531346
-0.140247 -0.0108528 0.00550797
-0.158392 0.00723693 -0.0718378
-0.636273 0.0443253 0.302768
-0.451006 0.0122008 0.188662
0.118222 -0.00639465 -0.112675
0.178576 -0.0109938 -0.096248
-0.230877 0.0278232 -0.0358262
-0.385339 0.0447481 0.163143
0.209896 -0.0599997 -0.0144005
0.456492 -0.00167013 -0.231001
0.323016 0.0282501 -0.0793023
0.208778 0.0297818 -0.29025
0.338473 0.0150683 -0.176607
-0.257426 0.0553527 0.0322105
0.440838 -0.0296038 0.116278
-0.618916 0.0622482 0.320486
0.225501 -0.025871 -0.334919
0.0694771 0.0300916 -0.257591
-0.0749561 -0.0480521 -0.115387
-0.00602203 0.0438766 0.0960656
-0.183046 0.0112951 0.0324509
0.410002 -0.0114135 0.0778702
0.2526 -0.0255601 -0.117417
0.212137 -0.0382787 0.146958
0.0682045 -0.0274638 -0.0947081
0.428252 0.014975 -0.231331
-0.0199873 -0.0343822 0.112336
-0.275636 0.021511 0.122016
0.445524 -0.0583489 0.104349
-0.740492 0.034669 0.37669
-0.180391 -0.0266586 -0.0473012
-0.40828 0.0330171 0.220712
-0.265772 0.0351405 0.0559575
-0.578561 0.0420123 0.346278
-0.72868 0.071289 0.427959
0.115738 -0.00542674 -0.227122
0.284165 -0.0631521 0.12637
0.0998212 -0.0288815 0.149386
-0.0910676 -0.0306183 -0.149913
0.210933 -0.0666207 -0.273091
0.178049 0.0181254 0.148568
-0.388612 0.00769394 0.153494
-0.186857 0.0121024 0.059027
0.185652 -0.0597479 0.0298031
0.184026 -0.0498957 -0.258263
0.307266 0.0121345 -0.140432
0.310532 -0.0752386 -0.305651
-0.270635 -0.00115923 0.0734182
-0.830504 0.0674101 0.440606
-0.17006 -0.0109855 -0.0892923
0.348048 -0.0670062 0.121537
0.448412 0.0120247 -0.251664
-0.156357 -0.0079916 0.0653537
-0.317797 0.019455 0.0468452
0.417267 -0.0754842 -0.0599949
0.182371 0.00883181 -0.13867
-0.018865 0.0454953 0.131834
-0.235997 -0.0213206 0.0673195
0.395195 -0.0458707 -0.0959081
0.400336 -0.0416032 0.0875213
-0.112976 -0.0157224 -0.13567
0.0707051 -0.0204501 -0.0520485
-0.636416 0.0314305 0.330312
-0.558573 0.0581507 0.297195
-0.153877 0.0261899 -0.0426793
0.00307674 -0.0290722 -0.0410232
-0.281529 -0.000947822 0.0559606
-0.220641 0.030759 -0.0154503
-0.597659 0.0619933 0.360986
0.465795 -0.0176914 0.0634137
0.419597 -0.0450323 -0.15944
0.38416 -0.0153483 -0.0365723
0.221466 -0.045795 -0.0917525
-0.00150581 0.0450165 -0.169881
0.45444 -0.0154344 -0.275827
0.0637991 -0.0447494 0.0229594
-0.490682 0.0152642 0.2191
0.00623852 0.0439098 -0.196666
-0.177768 -0.00589101 0.102039
0.232693 -0.0180469 0.148539
0.257116 0.0316482 -0.0979517
0.0861564 -0.0175153 -0.21157
0.205947 0.027106 -0.0654376
-0.0808786 -0.0404404 -0.0562383
0.0724596 0.0432299 0.0837077
0.0435103 -0.0393492 0.0261066
0.397769 -0.0439411 0.132467
0.269397 -0.0576431 -0.0460151
0.0737922 -0.0466759 0.135797
-0.182466 0.0405304 -0.0155653
-0.266425 0.0357654 0.0799884
0.135956 0.0424797 0.0686398
0.421278 -0.0789123 -0.190855
-0.568387 0.0461223 0.242787
-0.217266 -0.00544954 0.023976
0.124924 -0.0545259 -0.286714
-0.137453 0.00963391 0.0744877
0.236854 -0.065032 -0.0640033
0.435213 0.0191379 0.0313234
-0.412179 0.0277527 0.160681
0.350503 0.00551977 -0.099159
0.398002 -0.0139794 -0.152666
-0.0230299 0.047486 -0.0662262
-0.488744 0.0350141 0.274758
-0.164896 0.0273838 -0.0201645
-0.600654 0.0409438 0.249568
-0.199463 0.0310471 0.0471219
0.323286 -0.00395311 -0.178079
-0.066647 -0.0281892 0.0453436
0.187259 0.0409615 0.116252
-0.352816 0.0049156 0.125409
0.206688 0.0320855 0.000801064
0.213599 0.0289382 -0.313241
0.144793 0.0397811 0.00870498
-0.591898 0.0573735 0.282594
0.183532 -0.0581022 0.0921681
-0.00530387 0.00355908 -0.0357557
-0.410486 0.0406267 0.140927
0.458656 -0.0232989 -0.228976
-0.262707 0.0579113 0.0548818
-0.0798527 0.0504571 -0.0931702
-0.658797 0.0576108 0.320812
0.150592 0.031072 -0.0180017
0.331724 -0.00609827 -0.141667
-0.593684 0.0609705 0.328597
-0.230822 0.000224241 -0.0344272
-0.00191307 -0.0366776 0.0632178
-0.709046 0.0638359 0.363799
0.411604 0.0137398 -0.0241159
0.0830237 -0.047764 0.049778
0.22529 -0.0560109 -0.0233977
0.253231 -0.0195475 -0.343086
-0.0637588 0.0143491 -0.176481
-0.100589 -0.0266918 0.00957029
-0.590652 0.0226261 0.281211
0.210734 0.0340213 0.0613732
0.223932 0.00195798 -0.0103475
0.290026 0.0239329 -0.0525843
0.336155 -0.0492501 -0.144645
0.439414 -0.0742468 -0.294697
-0.184642 -0.0178966 -0.0764546
-0.0852404 -0.0460137 -0.0917484
0.226345 -0.00627651 0.0709756
-0.596354 0.0298108 0.310765
0.292551 -0.0735577 -0.335954
-0.290633 0.0177109 0.040473
0.269658 0.032442 0.135191
-0.13714 0.0415542 -0.022093
-0.130479 -0.0253477 -0.00399289
0.102434 0.00140459 0.0018011
0.124042 0.041347 0.0430927
0.381617 -0.0354009 -0.288628
0.123534 -0.0531466 0.112236
-0.15345 0.00804421 -0.0269357
-0.189231 0.0252842 -0.075754
0.318086 -0.0196065 -0.357668
0.329836 -0.0332816 0.140885
0.391544 -0.0737857 -0.288035
0.0100822 -0.0382922 0.0969942
-0.675568 0.0288481 0.332676
0.424875 -0.00981446 0.0384522
-0.446504 0.0497587 0.249409
-0.123591 -0.0323676 -0.0398605
-0.105656 0.0242862 -0.00514008
-0.433102 0.0488488 0.216725
-0.198299 -0.0241746 -0.045669
0.349023 0.0251039 0.131023
0.333429 -0.0438799 0.105683
0.465025 -0.0472282 0.0134606
0.146076 -0.037173 0.148116
0.24442 0.021024 -0.0322924
0.359386 -0.0587002 -0.0952573
0.122379 -0.030524 -0.293201
0.234128 0.0275589 -0.320595
0.205329 0.00118697 0.149431
0.320438 -0.0190749 -0.287878
-0.835994 0.0523629 0.448832
0.0503562 0.0419822 0.0553191
-0.0716379 0.0238116 0.0306809
0.0998585 -0.0500646 0.122081
-0.121571 0.0246199 -0.0295855
0.463723 -0.0291426 -0.0517293
0.395262 0.00159113 -0.0971455
0.0838869 0.0387904 0.0148772
0.139148 -0.0260762 -0.0154358
0.10763 0.0266293 -0.27865
-0.176224 0.0289662 0.0175592
0.11165 -0.0451712 0.14473
-0.373005 0.0376391 0.107576
0.318159 0.0225681 -0.32372
0.0820102 0.038522 -0.235884
-0.0919972 0.0515929 -0.117226
0.152953 -0.0563581 0.0903763
0.421125 -0.0110031 0.060369
-0.109791 -0.0155401 0.137812
0.352889 -0.0558203 0.107777
0.449027 -0.067172 -0.0619722
0.0467477 0.0131853 -0.0454731
0.292103 0.00365649 0.143975
-0.638566 0.0638504 0.33909
0.0452513 -0.0429172 0.1163
-0.136762 0.0266335 0.0165249
0.314684 -0.0450935 -0.0995787
-0.0326448 -0.0461277 -0.054803
0.175471 0.0107821 -0.0967434
0.400656 -0.0356185 -0.278314
-0.115494 0.0527412 -0.113536
0.438301 -0.0405658 -0.0820537
0.451617 0.0232904 0.0256196
-0.468816 0.0124527 0.156315
0.310282 0.0147709 -0.292202
0.408302 -0.0361128 -0.0158234
-0.0908292 0.00708666 -0.155528
-0.0220185 0.0280035 -0.203432
-0.00313488 0.0424258 0.0638064
-0.218105 0.0137594 0.0523304
-0.274268 -0.000155047 0.105855
0.0173011 0.0412682 -0.146148
-0.714579 0.06949 0.388011
0.331522 0.00699443 -0.291963
0.108942 -0.0618049 -0.238262
0.291708 0.0011507 -0.285657
0.352111 -0.0503807 -0.0477126
-0.80384 0.0502022 0.434079
0.171719 -0.0476189 -0.0998741
0.293589 -0.0248274 -0.132163
0.0197385 -0.00714079 0.0247076
0.0900301 0.00553428 -0.213851
0.424724 0.0146217 0.0669164
0.015385 0.0260076 -0.228909
-0.333155 0.0285382 0.0574995
-0.74553 0.0367603 0.358029
0.0886601 -0.0241414 -0.0588747
-0.577041 0.0562004 0.27146
-0.501995 0.0435377 0.199311
-0.0268166 -0.0351915 -0.199847
0.403659 -0.0809994 -0.318579
-0.512259 0.0202768 0.250561
0.0138108 -0.0518947 -0.150363
-0.0575752 -0.0385813 -0.0287689
0.117247 -0.0467806 -0.109419
0.271021 0.0259454 -0.297308
0.265503 0.0100806 -0.164645
0.310826 0.0254759 0.135862
-0.164337 0.0478819 -0.0754929
0.430669 -0.0266783 -0.351133
0.0133994 0.045286 0.127999
0.453331 -0.0698871 0.064278
0.031371 0.00893129 0.149381
0.237804 0.0156321 -0.121051
0.152416 0.0295579 -0.094821
-0.301695 0.0193223 0.0799604
-0.153124 0.0180498 -0.00153166
0.100151 -0.00618946 -0.283457
-0.316274 0.0384526 0.0706689
-0.480297 0.0335457 0.234823
0.315735 0.0304968 0.112818
-0.250543 0.0330182 0.00547066
0.279638 -0.0674725 -0.0942138
0.223491 -0.058039 -0.32717
0.162171 -0.0575861 0.0621566
-0.830876 0.0596399 0.463986
0.364117 0.0133211 0.134818
-0.685529 0.0482135 0.344056
0.1624 0.0419366 0.0966408
0.225417 0.0139926 -0.0970947
0.0433839 0.021025 -0.101369
0.434775 0.0189348 -0.193201
-0.0628728 0.0418029 0.0483458
-0.658701 0.0346452 0.347207
0.22138 0.0372618 0.0844041
-0.429876 0.0148952 0.198752
-0.421278 0.0472311 0.178734
0.365054 -0.0602298 -0.180142
0.447438 -0.0347418 -0.176281
-0.0921847 0.0408102 -0.014043
0.239141 0.0176466 0.0831025
0.0242381 0.00507416 -0.149944
0.0274901 -0.00672834 -0.118
-0.0893307 0.0443719 -0.043327
-0.0151985 0.0311746 0.0298529
-0.534489 0.0368525 0.240469
0.431944 0.0226116 -0.049322
0.0787624 -0.0497371 -0.211573
0.251621 -0.0705503 -0.285449
0.455906 -0.045565 -0.241842
0.180924 -0.0672963 -0.290791
0.393413 0.0242324 -0.0752276
-0.0169903 -0.0517569 -0.128313
-0.102138 -0.0236367 0.109055
0.176755 -0.0599075 0.00195862
-0.770924 0.0554915 0.437654
-0.34247 0.0410837 0.1157
0.299466 -0.0687399 -0.0659205
-0.0625567 -0.0288307 0.122363
-0.145264 -0.0382849 -0.0897514
-0.539051 0.0380857 0.280075
-0.194738 0.0269464 -0.0452949
0.0766214 0.00657369 -0.270196
0.465896 -0.0306059 0.0506536
0.143258 -0.0153649 0.151102
0.262647 -0.00722577 0.0931909
-0.115096 -0.0447038 -0.105486
-0.678375 0.0456093 0.307013
-0.551021 0.0193648 0.242528
-0.0812268 0.0438818 0.136695
-0.0959911 0.0427128 0.0677682
0.173534 -0.0169816 -0.252659
-0.490989 0.0346763 0.255519
0.421408 0.0170953 -0.300583
0.316895 -0.0546223 0.109344
0.37878 -0.0748386 -0.165408
0.0338343 -0.0497216 -0.0548123
0.0615338 -0.0257352 -0.261416
-0.401376 0.0214095 0.104577
0.027717 0.0435553 0.089797
0.1906 0.0379935 0.00267574
0.253741 -0.048791 0.142662
0.42758 -0.0631459 0.116432
0.466357 -0.0101606 -0.0444534
0.169753 -0.0526077 -0.308667
0.0169394 0.00683277 -0.0401165
-0.606235 0.0390256 0.339211
-0.646779 0.0454197 0.322422
-0.196943 -0.00546923 0.073384
0.148819 0.0291279 -0.293867
0.140138 0.0315414 -0.115735
0.188225 -0.0593137 -0.135624
0.0206339 -0.0181899 0.148188
-0.566133 0.059531 0.335638
0.349319 -0.0328288 -0.0462265
0.148495 -0.0585914 -0.118401
0.229496 -0.0298981 -0.155675
0.327468 -0.0642672 -0.352231
-0.548576 0.0566315 0.325319
-0.445005 0.031186 0.222711
-0.391818 0.0298927 0.208431
0.211893 0.0287455 -0.14239
-0.418492 0.0291818 0.204115
0.0756421 0.0339156 -0.0608343
-0.0739354 -0.0480552 -0.148763
0.416778 0.0166145 -0.331374
-0.614057 0.0287776 0.258425
-0.221079 0.0312191 0.00237625
-0.0964377 0.0443201 0.103586
-0.00786458 -0.0345594 -0.214004
0.16942 -0.0365989 0.148144
-0.605646 0.0233059 0.273112
0.42715 0.0125946 0.00623131
0.232935 -0.0633635 -0.0953226
-0.806121 0.0568491 0.408957
-0.674955 0.0480446 0.362471
-0.63401 0.0643126 0.38372
-0.13648 -0.00811285 0.109947
0.338428 -0.0313593 -0.100144
-0.115262 0.0277392 0.118
0.0329431 -0.0536824 -0.0875379
-0.186687 0.0135128 0.117509
-0.1082 0.00605036 -0.1413
0.149744 0.0405583 0.0261792
0.148023 0.0191918 0.149256
-0.822896 0.0583009 0.428259
0.45006 -0.0455619 -0.292159
-0.0196163 -0.0212636 0.145301
0.321931 -0.0716623 -0.156248
0.372294 -0.0213206 -0.29049
-0.489189 0.0333374 0.204978
0.221515 -0.0125068 -0.111437
0.380328 -0.0203143 0.096333
-0.236399 0.0328399 0.0930997
-0.0927246 0.0176663 0.0182525
-0.275869 0.0349903 0.0255968
0.448217 -0.00780921 -0.306855
0.468163 -0.0200677 -0.013987
-0.285572 0.0185233 0.0858694
-0.0232237 0.0308088 -0.0339017
0.249188 -0.0574203 -0.0389817
0.154639 -0.055471 -0.248895
0.0917421 0.0265765 0.148348
0.19738 -0.0150074 0.150063
0.08312 0.00614881 -0.0971165
0.456438 -0.0486096 -0.20397
0.343978 -0.0249 -0.289605
0.400512 -0.0794947 -0.350548
-0.0934418 0.0488674 -0.0806195
0.441256 -0.0497641 -0.328003
0.279589 -0.0471153 0.103377
0.0367018 -0.0253383 -0.180087
0.0265035 -0.0234388 -0.240278
0.402309 -0.0471298 -0.365225
0.336261 0.0214437 -0.326436
-0.547201 0.043432 0.224508
0.159769 -0.0577374 0.00558673
-0.147234 0.0458021 -0.0575948
-0.0618448 -0.0352257 -0.172246
-0.572568 0.0240023 0.285961
0.221918 -0.0659968 -0.139341
0.0497479 0.0405874 0.0242029
-0.775464 0.0722569 0.447959
0.137877 -0.00659673 -0.0157767
0.240016 0.027933 -0.290691
0.357646 0.0288232 0.113063
0.214983 -0.0592567 0.120242
0.214244 0.00650633 -0.0831242
0.188414 0.0260086 -0.0486028
0.0155435 0.0455958 -0.105299
0.0132243 -0.0542067 -0.214728
0.106805 -0.0169173 -0.0655858
-0.312453 0.000700942 0.0494557
-0.0890717 -0.0309738 -0.00707798
0.0760006 -0.00498527 0.151009
0.380893 -0.0154064 0.13633
0.0595161 0.000747576 -0.195868
-0.347584 0.042348 0.155252
-0.733979 0.0481866 0.34942
0.113472 -0.015823 0.151074
-0.00746146 0.0463378 -0.13
-0.00260947 -0.0511849 -0.0704067
-0.105301 -0.00122762 0.121739
0.0492815 -0.0579022 -0.221292
0.403688 0.00369483 -0.157245
0.161017 0.0352379 -0.119516
-0.511053 0.0156611 0.186532
0.298295 -0.0665533 -0.145371
-0.582029 0.0600015 0.31681
-0.528303 0.0381448 0.202565
-0.0320737 0.0152507 -0.200022
-0.397854 0.0264656 0.142283
0.449386 -0.0293115 -0.304755
-0.359679 0.0115873 0.155325
0.0669951 -0.045766 0.120108
0.319786 -0.0163587 0.102729
0.202566 -0.0357242 -0.146352
0.268018 0.00900798 -0.0405289
0.0549553 0.0303528 -0.249674
-0.0556642 -0.00981964 0.14387
-0.095105 0.0191047 0.140456
0.181629 -0.0246067 -0.0480152
0.240606 0.00814681 -0.158208
0.246677 -0.0513579 -0.158928
-0.232287 0.0160445 0.111982
0.416562 -0.0185288 -0.223104
-0.718835 0.0421739 0.337705
-0.61754 0.0464 0.271109
-0.439249 0.027961 0.131438
-0.0317038 -0.0511714 -0.139583
0.381564 -0.0794418 -0.307683
0.272669 0.0244376 -0.161002
-0.159693 0.010237 0.0448586
0.307129 0.0244583 -0.0561523
0.290606 0.0107396 0.100835
0.235408 -0.0432343 -0.119117
-0.130716 0.0459844 -0.110763
0.452224 -0.0508812 -0.26967
0.0596094 -0.0447131 0.0571565
-0.73301 0.0425398 0.392534
0.299366 -0.0241373 -0.173958
0.148066 -0.0284328 -0.305532
0.266519 -0.0621946 0.123327
0.25765 -0.0310774 -0.277817
0.201011 -0.0357677 -0.262546
0.123416 0.00774057 -0.0741788
-0.202025 0.0131304 0.0650894
0.266192 -0.0483672 -0.112543
-0.0278933 0.0456984 -0.184309
0.197412 0.0382805 0.0475779
-0.758213 0.0534883 0.386034
0.409944 -0.0675481 -0.162904
-0.268147 -0.0147576 0.0864238
0.255951 -0.00705996 -0.277861
0.109934 0.0221898 -0.106494
0.270565 -0.0160458 -0.115729
0.198488 -0.0593219 0.0780526
0.0714626 0.0381925 -0.215164
-0.500792 0.0545443 0.287879
-0.240043 0.0135201 -0.0119144
0.125398 -0.0492356 -0.000676709
-0.162021 0.0246718 0.0377247
0.39692 -0.0526626 -0.191299
0.0636758 -0.0182085 -0.198549
0.393361 0.00761933 -0.290294
-0.291785 0.00103463 0.112616
0.374658 -0.0584836 -0.361794
0.0568279 0.0428817 0.075526
-0.46743 0.0515173 0.243811
0.0490701 0.0146289 -0.253183
-0.164459 0.00961836 0.0111931
-0.0653692 0.0420237 -0.0229231
0.106322 -0.0159577 -0.10719
-0.175604 0.00996034 -0.00149436
-0.223866 0.0126579 -0.00661578
0.307803 -0.0695658 -0.079777
0.352844 -0.0386912 0.138183
0.100294 -0.0500294 0.0549854
0.368729 0.0191006 -0.344638
-0.454183 0.0350431 0.25483
-0.191907 0.0295631 0.00440741
-0.339738 0.00265956 0.0643008
-0.566695 0.0372422 0.223591
-0.531084 0.0385728 0.311991
0.109529 -0.0334371 0.00166327
0.228129 -0.0523248 0.0856269
0.268286 -0.0282193 -0.166821
-0.251143 0.0598295 0.0659837
0.143801 -0.0420281 -0.0150264
0.434183 -0.00203594 -0.167681
0.0518951 0.04055 -0.224938
0.445363 -0.0766459 -0.0420969
0.453869 -0.0240792 0.102613
0.278611 -0.0694176 -0.158578
0.276956 -0.0730997 -0.298495
0.269093 -0.0524129 -0.130997
0.278962 -0.0078859 -0.128711
-0.266646 0.0156704 0.0143176
-0.341015 0.0402785 0.0862176
-0.647338 0.0458839 0.340135
-0.270721 0.0364898 0.118651
0.095477 -0.0530751 -0.271709
-0.062851 0.0427532 0.0695383
-0.282203 0.0561558 0.0580581
0.421562 -0.0191785 -0.158921
0.291081 -0.00826 -0.0446773
-0.536171 0.0187254 0.251905
0.0897845 -0.0321096 -0.276212
0.34169 -0.0483475 -0.28944
-0.0105807 0.0430714 0.078008
0.436214 -0.0420374 -0.167433
0.0726077 -0.0188283 0.0133932
0.0397744 0.0367416 -0.0995197
0.429007 0.0233826 -0.0247553
0.338243 -0.0229331 -0.18036
-0.086427 0.00112376 0.033996
0.467375 -0.00100378 0.0210236
-0.0507812 -0.0493029 -0.108726
0.187352 0.0310875 -0.288078
0.31087 -0.0423172 -0.138168
0.088429 -0.0485267 0.0904126
-0.0432752 0.0495203 -0.0854093
-0.377277 0.00586071 0.105524
0.312009 -0.0530751 -0.287392
-0.0297939 -0.0505061 -0.107739
0.21155 0.0241277 -0.115958
-0.279604 -0.000316711 0.0225905
0.100246 -0.0467142 -0.0707103
0.0173374 0.0463803 -0.0688719
-0.528247 0.0563745 0.297072
-0.772983 0.0739481 0.430736
0.302896 0.0213981 -0.168646
-0.479456 0.0525526 0.25738
0.24694 -0.0564783 0.0989321
-0.0455737 -0.0505662 -0.148015
-0.00960143 -0.0357201 0.0979196
0.337784 -0.0710923 -0.0704606
-0.474975 0.0463896 0.190838
0.162612 -0.0660362 -0.28305
0.0181384 -0.0431556 -0.131015
0.378727 -0.0573716 -0.289673
0.09933 0.0406941 -0.089055
-0.445293 0.0412724 0.162045
-0.196614 0.0413231 -0.0227086
-0.0417953 0.00609077 -0.0225936
0.391256 0.0247433 -0.0594643
0.462684 -0.0575302 0.00169643
0.151526 -0.0464272 -0.30314
-0.717495 0.0518437 0.41622
0.413042 -0.0117658 -0.0108584
0.451541 -0.0078973 -0.289409
0.351733 0.0245059 -0.163888
0.195139 0.017799 -0.263949
-0.00844284 -0.0512667 -0.0877441
-0.0423487 0.0399842 -0.181588
0.308269 0.00932198 0.102786
0.419603 0.021397 -0.0790453
0.450083 -0.0742385 0.0354106
0.426637 0.0252884 0.083202
0.132674 -0.0291944 -0.118849
0.00193991 0.00350104 0.0270476
-0.375655 0.00626384 0.125927
0.362973 -0.0791268 -0.339316
-0.743402 0.0722838 0.433437
0.0718782 0.0100039 -0.203664
-0.0390025 0.00664002 0.145588
0.325741 0.00474358 -0.0490204
-0.420323 0.0267288 0.117969
-0.202989 0.0177503 -0.0231988
-0.42452 0.0304616 0.23272
-0.462117 0.013177 0.202026
0.165449 0.00949297 -0.132094
0.205804 -0.0285333 0.0211334
0.217935 -0.0295323 -0.00578467
0.394692 -0.0754759 -0.167021
0.419173 0.0045446 -0.217601
0.109076 0.0367509 -0.243569
0.267945 0.00373629 -0.11705
0.325896 0.016914 0.105266
-0.740968 0.0519163 0.362941
0.345726 0.0173772 -0.0529605
0.0967154 -0.049591 0.0765053
0.218281 0.0183555 -0.00658159
-0.159917 0.0277962 0.00867181
0.147801 -0.0144126 -0.125626
0.0884404 -0.0606733 -0.241002
-0.846567 0.0562511 0.460633
-0.0868405 -0.00784341 0.141163
0.417283 -0.0545798 -0.239541
-0.124615 0.00710014 0.0034737
-0.249211 0.0156238 0.054202
0.128122 0.0189866 -0.00874332
-0.0604157 0.0292502 0.142295
0.244992 0.0301549 -0.148729
0.460555 0.0167948 -0.0235283
-0.064905 0.0445916 0.110477
-0.611846 0.0254967 0.305581
-0.694768 0.0491172 0.358977
-0.576349 0.041035 0.311523
0.202244 -0.0567851 0.00115963
-0.438634 0.0298295 0.182367
-0.0855938 0.0417045 0.0455623
-0.336317 0.014861 0.152909
0.0982968 0.0341705 -0.267822
-0.717789 0.0514686 0.400138
-0.290731 -2.03272e-05 0.0775624
0.13835 -0.0549508 0.0150316
0.442408 0.0250801 0.0936521
-0.15221 -0.00695115 0.119857
0.442529 -0.0740707 -0.275007
-0.655666 0.0270822 0.308022
0.123091 -0.0164997 -0.00747592
0.0217375 -0.0226325 -0.137903
0.42459 0.0103034 -0.25083
-0.300755 0.0372162 0.0572155
-0.109986 -0.0178002 0.0969983
0.119509 0.0226924 -0.0756545
-0.0301359 -0.033006 0.0761851
-0.0299379 0.0471803 -0.14933
0.413289 0.0116962 0.126694
-0.78846 0.0454632 0.391458
-0.872791 0.0519453 0.459848
0.438763 -0.067743 -0.315868
0.0625203 -0.0337252 0.147259
0.0279295 -0.0505465 -0.178324
0.462685 -0.0513061 0.0466006
0.0454907 0.0300865 -0.191042
0.0764421 0.0193306 0.012046
0.344978 -0.0636009 -0.0924904
-0.760574 0.0541029 0.405542
0.346784 0.00462958 -0.358431
-0.545318 0.0182819 0.211839
-0.532704 0.0255277 0.273708
0.464735 -0.0426975 -0.0412336
0.289982 -0.0508698 0.140244
0.0310954 0.0417584 0.0498277
0.373405 -0.0729577 -0.0615546
0.258434 -0.0425131 -0.163484
0.339822 0.0149781 -0.149946
0.0744057 0.0444621 0.111237
-0.673102 0.0619332 0.339071
0.425386 -0.00801958 -0.0901483
-0.648255 0.0469834 0.382991
-0.0658957 -0.0283457 0.0877306
-0.117418 -0.0307251 -0.0259035
0.424925 -0.0666911 -0.346097
0.058315 -0.0461598 -0.0563378
-0.374004 0.0238531 0.0923526
-0.177857 0.015659 -0.0849741
0.170897 -0.0537953 0.140207
-0.803982 0.057874 0.45607
0.00655562 -0.0544793 -0.183452
-0.794654 0.0435139 0.415708
-0.475367 0.0148465 0.219283
0.107678 0.0428299 0.0757095
0.225529 0.0340524 -0.0751157
0.0136999 0.0442217 -0.165175
-0.746488 0.0536562 0.421009
-0.417824 0.0479482 0.216414
0.0812961 0.0422693 0.140954
0.385853 -0.0642299 0.103661
0.141183 0.0037995 -0.0815926
-0.387733 0.0252137 0.115231
0.424183 -0.0492781 -0.354183
-0.325141 0.00191239 0.0686688
-0.246992 -0.00175718 0.105576
0.281449 -0.0576203 -0.283995
-0.0885691 0.00626073 0.0548859
0.259326 0.0260324 -0.322762
-0.0138555 -0.00157479 0.028715
0.128905 0.0350338 -0.266405
0.0626354 -0.0531912 -0.0872114
-0.22753 0.0542075 0.0562082
0.382894 -0.0771133 -0.353274
0.353107 -0.0137493 -0.0459602
0.11057 0.0417169 0.0509656
0.113724 -0.0558337 -0.0846093
-0.0265388 -0.0439556 -0.0407745
0.457363 -0.0184863 -0.193408
0.247582 -0.0662766 -0.0990844
0.11348 -0.0034619 -0.290138
-0.604867 0.0429968 0.323601
-0.0356231 0.0214032 0.145061
0.386453 -0.0741453 -0.07895
0.18879 -0.0595116 0.0470141
-0.0913909 -0.0164986 0.0453861
0.251795 -0.02961 0.0910831
-0.279933 -0.0195796 0.0479634
0.284649 -0.0291613 -0.350741
-0.182776 -0.00725168 0.0312011
0.177307 0.0313995 -0.299395
0.0462265 0.0423397 -0.0583327
-0.135509 -0.0300867 -0.111774
0.326207 -0.0656362 0.124975
0.136385 0.0117677 -0.119879
-0.160699 0.0110132 0.0768297
0.0990056 -0.0588826 -0.227261
-0.0988544 -0.0240937 0.129232
-0.709726 0.0502716 0.370419
0.306096 0.0126205 -0.348735
-0.586674 0.0393687 0.238373
0.107099 -0.0508667 0.0228257
0.345102 -0.0629552 -0.291101
0.080921 0.0336783 -0.09228
0.415013 -0.0701721 -0.213827
0.0152969 0.0371313 0.144047
-0.618483 0.0599601 0.303669
-0.0850808 0.0335581 0.00606343
-0.518838 0.017028 0.223896
0.441526 0.00526691 0.113864
-0.203269 0.00728667 0.0251957
-0.317291 0.0154673 0.14418
-0.551991 0.0267392 0.284867
-0.776519 0.0549236 0.400967
0.463782 -0.0537269 -0.0128264
-0.47597 0.0468435 0.271228
