ply
format ascii 1.0
comment Created by Open3D
element vertex 1566
property double x
property double y
property double z
end_header
0.133384 -0.0145052 -0.0985071
-0.169762 0.00599672 0.0504713
-0.168874 -0.0156686 -0.00187277
-0.306814 0.0141561 -0.00827297
0.0251531 0.000582211 0.0959134
0.568337 0.00979419 0.107707
0.345894 0.0596693 -0.274982
0.542359 0.026044 0.0606857
-0.930928 0.00772769 -0.00750469
-0.031925 0.0015794 0.0862258
-0.0926584 0.0166146 -0.000196156
-0.0291466 -0.000707654 0.0113342
-0.0298856 -0.00386646 -0.065882
0.028544 0.0119976 0.0258593
0.101851 0.0259269 -0.1305
-0.460762 0.00253687 0.053675
0.249246 -0.00845625 -0.121978
-0.123923 0.0064305 0.0506469
0.36258 0.0120948 -0.0116126
0.51317 0.016925 -0.0103468
0.335983 -0.0217333 0.066627
0.386791 0.0691478 -0.278868
-0.823194 0.0123854 -0.0446871
0.277018 0.0330264 -0.176069
0.251256 0.0272931 -0.212735
0.0811713 -0.0353866 0.108156
0.205696 0.0439192 -0.0634947
0.449742 -0.038906 0.248743
0.219557 -0.0394684 0.0605132
0.521014 -0.0167128 -0.0299759
0.360272 -0.0363901 0.24184
-0.310708 0.00684234 0.0365033
-0.187579 0.00462846 -0.0766881
-0.544701 0.0147801 -0.026906
0.366864 0.0241437 -0.249972
0.549411 0.0155568 -0.156035
0.0537277 0.0140411 -0.105147
0.239096 0.0121628 0.133314
0.508992 -0.0014038 -0.139921
0.0974932 0.00148742 0.00412813
0.275654 0.0437812 -0.0817127
-0.216566 0.0069176 0.0418896
-0.754851 -0.0171289 -0.0293153
0.511474 -0.0212399 0.084314
0.106316 0.0474208 -0.0912247
-0.481855 -0.0145408 -0.0282711
0.561724 0.0261516 -0.115956
0.487627 -0.0352716 0.23434
0.296623 -0.0163355 0.235836
-0.989871 0.00172156 -0.0113011
-0.816845 -0.020019 -0.0153735
0.460955 0.0732652 -0.258305
-0.210203 0.0188525 -0.0311822
-0.25277 -0.0271718 0.063719
-0.693251 0.0021658 0.0251757
0.568996 0.0220406 0.00930536
-0.524572 0.00871756 0.0116656
-0.373076 -0.0142878 -0.0230698
-0.367624 -0.0264119 0.0519012
0.0770362 -0.0107757 0.0799072
0.582589 -0.0152714 0.0479459
0.142629 -0.0515737 0.134144
-0.956562 -0.0162007 -0.0475668
-0.059934 0.00520336 0.0621794
0.219827 0.0584537 -0.180812
-0.434615 0.0157042 -0.025752
-0.258166 -0.00603645 -0.0667172
0.460772 0.0140056 -0.239569
0.156933 0.00209576 0.0262053
-0.527694 -0.024636 0.0310219
0.074583 7.4209e-05 -0.0454418
0.0366323 0.0113757 -0.0664287
-0.642856 -0.0190072 -0.0107858
-0.367753 0.00674827 0.0335348
0.203899 0.0121523 0.131893
0.179731 0.0543102 -0.129071
-0.718364 -0.0104046 -0.0572836
-0.299876 -0.0249025 0.0468222
-0.424556 0.00347239 0.0501671
-0.267717 -0.012006 -0.0305613
0.00215193 -0.00791689 -0.038959
0.145371 0.046779 -0.0848454
-0.319288 0.00818133 -0.0688862
-0.452378 -0.0175992 -0.00761758
0.331397 -0.037634 0.219101
0.479843 0.00689042 -0.0151226
-0.348883 0.0182253 -0.0359382
0.064956 0.0118941 0.0287579
0.489724 0.00967607 -0.173678
-0.600834 0.0155944 -0.0354061
0.537818 -0.0200901 2.54413e-05
0.447332 0.0440498 -0.228386
0.0117277 -0.0230963 0.0550726
-0.136883 -0.00752491 -0.0500148
-0.0674297 -0.0199156 0.0305756
0.153937 0.0358068 -0.0219597
0.530931 -0.0226061 0.224974
0.25177 0.0571753 -0.1544
-0.87554 0.00866738 -0.00984506
-0.470728 0.0174686 -0.0388545
-0.0543209 -0.0279945 0.0870547
0.506935 0.0107527 -0.212302
-0.567354 -0.014339 -0.0348291
0.12506 0.0133335 0.0256398
0.155204 0.0385841 -0.154081
0.510569 -0.0341961 0.193655
0.186447 -0.0388998 0.0549513
-0.764012 0.00902173 -0.00509325
-0.614594 0.00865484 0.00645177
0.416075 -0.0344626 0.253025
0.390965 0.0109816 0.0562809
-0.79486 0.00582425 0.0126722
0.312884 0.0239973 -0.226443
0.235217 0.0416833 -0.047895
-0.706703 0.0147341 -0.0366939
0.497004 0.0461017 -0.113333
0.104983 -0.00664689 0.0562286
0.509901 0.0616762 -0.161754
-0.176229 0.0171508 -0.018595
0.196512 0.0218368 -0.177836
0.235585 -0.0144279 0.187436
-0.654619 -0.0140296 -0.0421617
0.272252 -0.0170818 -0.0690754
0.332711 -0.0660998 0.237557
-0.473621 -0.024844 0.0356608
0.194313 0.0215326 0.072285
0.177114 -0.0492312 0.117971
0.421542 0.0161829 -0.048286
0.338976 0.0393189 -0.239709
0.391797 0.0277823 -0.0103342
-0.729883 0.0104151 -0.0115478
-0.90374 0.0111102 -0.0266342
0.550331 0.000920879 0.168853
-0.244443 0.0158129 -0.039052
0.549759 -0.045901 0.138886
0.259498 -0.038674 0.0597773
-0.584277 0.00612424 0.0239151
0.134218 -0.0403517 0.0606428
-0.407662 -0.0262217 0.0482396
-0.0912556 0.00707021 0.0487424
0.515858 -0.0470456 0.245754
0.168878 -0.0022348 -0.0143115
-0.0522199 0.0187584 -0.00842767
-0.711549 -0.0234423 0.0122415
0.457034 -0.0643532 0.271711
-0.0805301 -0.00680368 -0.0509493
-0.749963 -0.0231799 0.0110604
0.38868 -0.0535534 0.248304
0.331609 -0.0164557 -0.0253025
0.506168 0.0652688 -0.219634
-0.207567 -0.0179912 0.0100193
0.564646 0.0210946 -0.0530346
0.495214 -0.0280091 0.266669
0.472344 -0.00500058 -0.0768125
-0.923496 -0.0189884 -0.0283495
-0.965644 0.0118753 -0.0351929
0.310067 -0.0340539 0.0397478
0.444383 0.0170808 -0.0165066
0.572609 0.018102 0.0772438
0.284901 -0.0502075 0.151794
0.235366 -0.0489616 0.119933
-0.250228 0.00758239 0.0357079
0.279412 -0.0433558 0.216739
-0.512653 -0.012769 -0.0410945
0.523298 -0.00810399 0.114521
0.512048 0.0260482 0.0517935
0.393137 0.0163501 -0.265622
-0.265919 -0.0170411 0.000539715
-0.381214 -0.0088869 -0.0568216
-0.845011 -0.0151376 -0.0471727
0.195279 -0.0121941 0.17112
0.212121 0.0123551 0.0338034
0.56718 -0.0306609 0.111308
0.126158 -0.0185839 -0.00601309
-0.473314 0.00702004 0.025298
-0.13602 -0.0150101 -0.00388492
-0.272772 -0.0221514 0.0315707
0.440664 -0.00896948 0.265417
0.301944 -0.00152088 -0.0735941
0.327169 0.0204277 0.0663782
0.28926 0.0661834 -0.234507
-0.156013 -0.020527 0.0288289
-0.283289 0.0094273 0.0222939
-0.769933 0.000666878 -0.053367
0.207284 -0.0199751 -0.0579119
-0.315747 0.0188097 -0.0374758
-0.995175 -0.0181125 -0.0381959
0.398123 0.0426826 -0.24517
-0.385198 0.0121659 -0.000895443
-0.107765 0.0197556 -0.030371
0.440008 0.0188922 -0.270222
-0.231754 0.0136711 -0.000621582
0.260552 0.00444762 0.03555
-0.00532908 0.0116265 0.026037
0.442643 -0.0304906 0.0257778
0.0936801 0.0416206 -0.0563105
0.543393 0.0425749 -0.0550813
0.538447 0.0139314 0.131331
-0.34873 -0.0172062 -0.00358702
0.512083 -0.0302972 0.0310595
0.473762 -0.0245628 0.0081911
-0.117267 -0.0284262 0.0800368
0.52562 -0.00957469 -0.0976196
0.539087 0.0325017 -0.178674
0.303322 -0.0154763 0.104057
-0.149975 -0.00957783 0.0899292
-0.678727 -0.0171393 -0.0245186
-0.700717 0.00957154 -0.00453821
0.124576 0.0347762 -0.0160477
-0.413868 -0.0215943 0.0193724
0.103666 -0.0152892 -0.0955291
0.258465 0.00282432 -0.191116
0.312802 0.0407081 -0.261846
0.264393 0.0555384 -0.219032
0.126507 0.017847 0.0920699
0.225401 -0.0022787 -0.166358
0.0947556 -0.0094503 0.11306
0.0569336 -0.0103733 -0.0204347
0.105485 -0.0459031 0.0934602
-0.361721 0.00216057 0.0621532
0.479307 -0.00800783 0.251771
0.435633 0.0684569 -0.274106
0.298358 -0.0562847 0.188056
-0.00564684 -0.0129342 -0.00855937
0.405848 -0.0125506 -0.0459456
-0.0550443 0.0090625 -0.0578857
0.332556 0.0115659 -0.0525381
0.478553 0.0268771 -0.0879822
0.421189 0.00964262 0.0542792
0.553732 -0.0380343 0.0806389
0.272004 0.0137976 -0.119946
0.226751 -0.0127293 -0.102536
0.297318 -0.00860468 0.148875
0.244037 0.0514242 -0.109619
-0.0909786 -0.00869562 0.0179853
-0.294497 -0.0140286 -0.0197804
0.264517 -0.0477543 0.11977
-0.0947332 -0.014916 0.0947155
-0.217567 -0.0263461 0.0608247
0.414337 0.00464518 -0.0149376
-0.198956 0.00343894 0.0644016
0.0745432 -0.00617547 0.0514392
0.37823 -0.0287042 0.281867
0.297758 0.0402628 -0.039559
-0.0550349 -0.00920048 -0.0346107
-0.639012 -0.0235364 0.0173278
-0.00476881 -0.00124388 0.105299
-0.841348 0.011082 -0.0225806
-0.120819 0.0140359 0.0040236
0.129285 0.0204748 -0.144509
-0.786829 -0.0179201 -0.0264304
0.429013 0.0187637 0.0168355
0.377297 -0.0279265 0.025275
-0.349177 -0.0104893 -0.0449651
-0.0386638 0.00907295 0.039682
0.0222692 -0.0134798 -0.00346263
0.555565 -0.0303286 0.0369664
0.11999 -0.0245189 -0.0374768
0.513217 0.0566453 -0.133945
0.488428 0.0671691 -0.242651
-0.652173 0.0101611 -0.00515074
0.564238 0.0037243 -0.0952814
-0.595215 -0.0136178 -0.0410015
0.189731 -0.00497132 -0.15302
0.14387 0.00742978 0.147697
0.476255 0.0248304 0.047555
-0.0131414 -0.0213037 0.0424927
-0.341034 0.00571345 0.0415656
-0.20731 -0.00866844 -0.0473567
-0.19997 -0.0136157 -0.0164449
0.345429 0.0166324 0.0327884
-0.16193 0.00683502 -0.0508186
-0.182842 0.0101036 0.0243792
0.396782 0.00361141 0.0205556
-0.878924 -0.0181689 -0.030625
0.160285 -0.0212253 0.159831
0.232509 -0.0206473 -0.042538
0.507065 -0.00543333 0.216506
0.359626 -0.0161641 -0.0186253
0.463036 0.0245994 0.0118548
0.136999 -0.0189016 0.0215653
0.0514825 0.00279819 0.0839106
0.28914 0.0209849 0.0740421
-0.182069 -0.0279485 0.0728965
-0.121227 -0.00246266 -0.0802002
-0.328989 0.0107569 0.0112694
0.373436 -0.0149505 0.252687
-0.297472 -0.0128589 0.0712899
0.443036 0.0403652 -0.0383789
-0.0780308 -0.00251597 -0.0191574
0.444971 0.070883 -0.236186
-0.257182 -0.00411942 0.0776661
0.350807 0.0220897 -0.277742
0.465985 0.0459815 -0.208573
0.503443 -0.0294118 0.0569143
0.378721 0.0272826 0.0381925
0.523717 -0.0344961 0.136906
0.273506 -0.0422645 0.0915828
0.53112 -0.0554098 0.187727
0.453161 -0.0136032 -0.0235266
-0.454322 0.00575317 -0.0655298
0.55077 -0.0103398 -0.0445334
0.0186766 0.00471103 0.0700952
0.507645 0.0145429 0.0774299
0.081557 -0.0218096 0.13301
0.525296 0.0481567 -0.0759135
-0.440631 0.0100806 0.00849214
-0.957771 0.00756567 -0.00817158
-0.498907 -0.00257764 -0.00635489
0.179334 -0.0215734 -0.0504633
-0.411268 0.0180382 -0.0386684
0.301531 -0.00583575 0.176858
0.369495 0.0375399 -0.0324741
-0.118902 -0.024197 0.0537304
-0.550599 -0.00593715 0.0111074
0.465003 -0.0603278 0.244553
0.157511 -0.0421861 0.0733815
0.251582 -0.0140255 -0.0930591
-0.335578 -0.0240036 0.0566635
0.162631 0.0131882 0.122994
0.0857538 -0.0216131 -0.0558652
0.091854 0.00448212 -0.0215594
0.491067 0.042899 -0.0488075
0.25582 0.0159801 -0.0293038
0.391648 0.0739279 -0.251919
-0.281089 0.0175501 -0.0275687
0.415359 -0.0258757 0.0464418
-0.571004 0.0156613 -0.0339668
0.149515 0.024197 0.0382113
0.0801062 0.0461268 -0.0848924
0.527908 0.0223918 -0.201729
-0.00814713 0.00921197 -0.0558893
-0.398803 0.0059664 0.0364187
0.549435 -0.0444679 0.165029
-0.55381 -0.0239043 0.0325919
0.516411 -0.0178585 0.174136
0.288557 0.0126865 0.105378
0.225292 0.0584746 -0.154104
0.379276 -0.016323 -0.0422986
-0.154261 -0.010805 -0.0309083
-0.405425 -0.0116861 -0.0410934
0.280752 0.0561948 -0.187253
-0.501155 -0.0254147 0.0381569
0.289213 -0.00773919 -0.0305979
0.21027 0.0507218 -0.105085
-0.55568 0.0027731 -0.0502939
-0.0655053 -0.0246151 0.0596195
0.256484 -0.0327348 0.198057
0.461861 0.00317657 0.0579
0.361001 -0.00566538 0.0597042
0.0275353 -0.0191337 0.0316668
0.482827 0.0109503 -0.225686
0.227077 -0.0544262 0.155054
0.123576 0.0244416 0.0509009
0.247789 0.00840816 0.156979
0.362912 -0.0329072 0.0457038
-0.528354 -0.00306474 0.0445571
-0.885989 0.00730017 -0.0460648
0.232936 0.0365761 -0.197704
0.109032 0.0261506 0.00214525
0.075577 0.0276965 -0.0390771
0.141783 -0.0210486 -0.0572899
0.0439962 -0.0060354 -0.0479379
0.424974 0.0496535 -0.238795
0.0943428 0.00241039 0.0328031
0.0190341 -0.00465042 -0.0580174
-0.658071 0.0160742 -0.0426384
-0.673504 0.00740574 0.0104834
-0.562294 -0.0182348 -0.0105318
-0.235516 -0.0107381 0.0527771
-0.322165 -0.0165592 -0.00592424
0.107848 0.0384534 -0.0359298
-0.0881386 0.00312117 0.0732457
0.109752 0.0130941 0.120284
0.315859 0.0558091 -0.224471
0.241009 -0.00475704 -0.145235
0.300101 0.013022 -0.244759
0.15359 0.0515967 -0.11399
-0.0410031 -0.0185703 0.023936
0.101747 -0.00578245 0.0834987
-0.698435 -0.014915 -0.0394325
0.288458 0.0307331 -0.197959
0.350928 0.075409 -0.255594
-0.626899 -0.0157021 -0.0301421
0.499719 -0.0578944 0.224121
0.113146 -0.0378984 0.0442352
0.235063 0.0201256 0.0828883
0.555085 0.0468616 -0.103344
-0.235893 -0.0166888 0.000236586
0.536098 0.0313947 -0.0221207
0.504886 0.0666893 -0.195041
0.301696 -0.045809 0.237828
0.428283 -0.0059131 0.0119123
0.269624 0.0282474 -0.153193
0.558479 0.00340131 -0.00263164
-0.0583891 -0.00245221 0.012783
-0.298564 -0.00397726 -0.0735157
-0.768171 -0.00633226 0.0145903
0.218286 -0.0463264 0.102648
0.042259 0.00143097 -0.0048612
-0.496426 0.00805695 0.0174836
0.0935954 -0.0230859 0.0379113
0.307073 0.0251565 0.0533552
0.101536 -4.39066e-05 -0.132325
0.196927 -0.0097942 -0.123012
-0.414729 0.0136387 -0.0117997
0.323155 0.0377981 -0.0458609
0.517835 0.0425896 -0.215615
0.318406 -0.0161965 0.0825601
-0.115445 0.0102802 0.0274784
-0.746824 -0.0066887 -0.0555098
0.1074 -0.0272826 0.144581
0.534149 0.00589323 -0.00481626
-0.046356 0.0127931 -0.0803078
0.479257 0.0654873 -0.201357
-0.856775 0.00636988 0.00546817
0.160834 -0.0139659 -0.100118
0.12354 -0.0486637 0.111142
-0.452817 -0.00659462 0.021235
0.280326 0.0426366 -0.0564547
0.0590335 -0.00958723 -0.10657
-0.0328438 -0.0269199 0.0758411
0.0546967 0.0354462 -0.0937992
0.532202 -0.0129635 -0.0732429
0.111678 0.0207706 0.0731537
0.338721 0.012537 -0.015639
-0.0462285 -0.00612739 -0.00854056
0.254885 -0.0326501 0.0368315
0.349218 -0.0404719 0.271382
0.498453 -0.0156968 -0.0215082
-0.0035448 -0.0105865 0.0737359
0.294682 -0.00643888 0.0334177
-0.184552 -0.0189058 0.017077
0.548735 0.0220761 0.0848586
-0.816139 -0.0161819 -0.0389506
0.0730558 0.0206776 -0.117514
-0.473685 -0.0207152 0.0102419
0.487663 0.0252882 -0.252612
0.284337 0.00140902 0.198076
-0.382187 -0.0104161 0.0416816
0.320402 -0.016625 0.256178
0.0454659 -0.00351212 0.0332368
-0.817263 0.00983704 -0.0134209
0.226578 0.0324797 -0.0276962
0.31721 -0.0476508 0.199774
-0.165201 -0.00349435 -0.0765867
0.291629 0.017871 -0.0827214
0.0686709 0.000604162 0.00186825
0.284258 0.0152944 -0.0277558
0.261071 0.0140568 0.121308
0.202712 -0.0514106 0.161694
0.146989 -0.00542914 -0.144373
0.11917 0.00404624 0.147575
-0.237959 -0.00840294 -0.0508908
0.570141 -0.032117 0.0644413
-0.393441 0.000659561 -0.019725
0.190649 0.00518559 -0.019356
-0.305789 -0.00959246 -0.0477905
-0.542924 -0.0134161 -0.0389935
-0.340672 -0.000243553 -0.0183567
-0.112734 -0.00849911 -0.042515
-0.40096 -0.0182536 -0.000389531
0.0317467 0.000126473 -0.0864425
0.365419 -0.0632201 0.244925
-0.0212841 0.012954 -0.0797423
-0.0963074 0.00366472 -0.0805995
-0.0285832 -0.0128966 0.104285
0.482083 -0.0489501 0.269778
0.494512 -0.00836636 -0.0862115
0.0672274 0.00438386 -0.0671813
0.53511 0.0575986 -0.163531
0.539693 -0.0129426 0.205637
0.479179 0.0520712 -0.257831
-0.789608 0.0110172 -0.044615
0.41274 0.0681329 -0.278446
-0.767288 0.0137265 -0.0342521
0.168676 -0.0453512 0.0935636
0.266728 0.0458675 -0.103064
-0.2459 0.00217311 -0.0198723
-0.226406 -0.0036041 0.0169024
-0.0294592 0.0163585 -0.00459361
-0.605025 0.0036344 -0.0596721
0.508036 0.0293972 0.00851932
-0.278324 -0.0260607 0.05529
0.11183 0.0504835 -0.113514
0.347397 -0.00771202 0.252807
-0.0877278 -0.0211145 -0.00616256
0.510358 -0.00558907 -0.114519
0.312064 -0.0248283 0.191722
-0.45772 -0.000751555 -0.0225054
-0.145066 0.00289331 0.0711102
0.244147 -0.0558144 0.173571
0.268488 0.0251513 -0.227942
0.26036 0.0242555 0.0576952
0.00581665 -0.00510929 0.0406018
-0.596483 -0.00501522 0.00258322
0.167619 -0.0200776 0.0245569
-0.0313197 0.0052713 0.0635424
0.396673 0.0294735 -0.285545
-0.664634 -0.00796602 0.027029
0.346419 -0.00644201 0.0281464
-0.906238 0.00582111 -0.00036549
0.192423 0.0405952 -0.0438571
-0.867442 -0.0143756 -0.0517928
-0.283546 -0.00250448 -0.000887081
-0.134797 -0.0060469 0.0301606
0.52372 0.000469322 -0.157331
-0.616463 0.0046734 0.0308442
0.19504 0.0155934 0.109798
0.400727 -0.069383 0.262305
0.237824 0.00693955 0.0349124
0.537856 -0.0419405 0.206764
-0.527148 0.000218456 -0.0253213
-0.732525 -0.020779 -0.0054591
0.556016 0.0286383 0.0334574
0.214569 0.0243538 0.0551896
-0.424729 -0.0099374 -0.0530545
-0.172115 -0.0232615 0.0446617
0.492355 0.0259635 -0.0117819
0.400766 -0.0297369 0.284624
-0.731243 -0.0159268 -0.035242
-0.948657 -0.00453335 -0.0297491
-0.622686 -0.0208553 0.00184421
0.146717 -0.0106304 -0.121528
0.500394 -0.0179525 -0.0443045
0.172893 0.0225214 0.0651302
-0.803515 -0.0141457 0.00662633
-0.259923 -0.00431384 0.0191842
0.452556 0.0501166 -0.272883
-0.505188 0.00392917 -0.054267
-0.921153 -0.00935309 -0.0487689
-0.0761964 -0.0283049 0.0816705
0.448133 -0.0377343 0.281032
0.484268 0.0343936 -0.169688
-0.876405 -0.0145303 -0.00148184
-0.839269 -0.0155254 0.00245465
0.435197 -0.0604909 0.278085
-0.368367 -0.0043452 0.0126377
-0.517336 -0.0196961 0.00125573
0.503011 -0.031447 0.214583
0.0229581 0.0108311 0.00418249
0.146797 0.0165205 0.1015
-0.335632 -0.00743293 -0.0629386
0.147111 -0.0113443 -0.00953775
0.581036 0.00624445 0.01964
-0.15496 0.00102332 -0.00713885
0.315485 -0.0345264 0.0664514
-0.188906 0.0196291 -0.037944
-0.163356 -0.0121816 0.0661493
-0.313476 -0.0221963 0.0293192
-0.480017 -0.0079472 0.0496905
-0.123736 0.00458246 -0.0271098
0.326175 -0.0591289 0.216816
-0.146435 0.00643469 0.0492201
0.373223 -0.053729 0.276734
0.31947 -0.01503 0.0302484
-0.215951 0.00171319 -0.0151812
0.214402 0.0317146 -0.186451
0.0355003 -0.00956633 0.112695
-0.0533467 0.0161777 -0.0321104
-0.48515 0.0145826 -0.021988
0.0896119 0.00669496 0.0698025
-0.684347 -0.00564552 -0.00647196
0.27029 0.00846147 0.150754
0.45971 -0.0180372 0.250496
-0.017726 -0.0178898 0.0211964
0.318089 0.0350124 -0.0242771
0.563071 0.00465145 0.128472
0.202565 0.00853777 0.154102
0.0825019 0.00663538 0.121709
-0.275625 0.00578975 -0.072877
0.528414 -0.0156258 -0.0517793
-0.595205 -0.00100451 -0.0220246
0.202563 -0.0359239 0.040351
0.331124 0.0365165 -0.27316
0.180641 -0.028861 0.163964
0.407169 0.0309902 -0.0408666
-0.10647 -0.00599986 0.039105
0.365378 0.0152515 -0.0430376
-0.51087 -0.00835486 0.028461
-0.315465 -0.00988932 0.0500532
0.539959 -0.0282422 0.0218078
0.235808 0.0166052 0.105138
-0.49109 -0.0114499 -0.0478752
-0.393564 0.00698136 -0.0678304
0.0570088 -0.0137871 0.0971991
0.191006 0.00260377 0.0298136
0.197767 0.0564436 -0.141083
-0.991542 -0.021518 -0.0170083
-0.204688 -0.00668974 0.029776
-0.937136 -0.0131098 -0.00795207
0.256592 -0.0200546 -0.0542984
-0.434076 -0.0205103 0.0114419
-0.183783 -0.00112367 0.00428283
0.297916 -0.0303087 0.149169
0.279439 0.0130596 -0.189139
-0.586799 -0.0177299 0.029961
0.245799 0.00442045 0.178209
0.548965 0.0371981 -0.154646
0.099359 -0.0236566 -0.00356507
-0.203173 -0.0132196 0.0775365
-0.557153 0.0106722 -0.00239436
0.459817 -0.0179086 0.0535966
-0.0570439 -0.00768275 0.0450662
0.149642 -0.0391203 0.154033
-0.747405 -0.00523995 -0.0128847
0.279546 0.02078 -0.100958
-0.854956 -0.00337519 -0.0310484
0.551676 -0.0205542 0.170053
-0.168041 -0.00455321 0.0188989
-0.0845617 0.015446 0.0237803
0.50944 0.0305031 0.0309069
0.34756 -0.0508242 0.232213
-0.208714 0.00799423 -0.0608627
-0.129268 -0.0116255 0.0723143
0.548625 0.0269314 0.00457655
0.364102 0.071044 -0.274947
0.332812 -0.0349225 0.04871
-0.306526 0.0016787 -0.0280683
0.254084 0.0433359 -0.0579401
0.492525 0.0194891 -0.125477
0.269489 0.0543677 -0.169128
-0.362975 0.00283582 -0.0312292
0.343786 0.060124 -0.238782
0.463643 0.0143119 -0.0744951
-0.0937841 0.00576676 -0.0400105
0.239993 0.0612142 -0.174607
0.177639 0.0109199 0.137888
0.341989 -0.000401389 0.0675656
0.147276 0.0399325 -0.042584
-0.430275 -0.00202156 -0.00551241
0.580228 -0.000587448 0.0707307
0.150622 0.0533402 -0.139588
0.311782 -0.00568001 -0.0252252
0.0954225 -0.018495 -0.0763076
-0.26682 0.00645559 -0.0407694
0.332158 0.0258548 0.0463738
-0.366358 -0.0229845 0.0308839
0.405129 -0.00842176 0.0523862
0.169372 -0.00674932 -0.143358
0.489709 0.00796183 -0.196132
0.215836 -0.04283 0.0809765
-0.29301 -0.00851374 0.0355103
0.127121 0.0482853 -0.0952563
-0.688229 0.00348284 -0.0449505
0.198038 -0.0486448 0.115658
0.556111 0.0427119 -0.130217
0.324156 -0.00699392 -0.0578512
0.491208 0.0502911 -0.153636
-0.981304 -0.00229542 -0.038081
-0.583272 -0.0182045 -0.0120255
0.450698 -0.0188807 -0.0437233
0.529469 0.00753117 0.169672
0.169334 0.0463254 -0.0805692
0.493242 -0.000720197 -0.000868266
0.376878 -0.0690454 0.262875
0.211293 -0.00515006 -0.0262318
0.207504 0.00112993 -0.176739
0.185635 -0.0171435 -0.0777731
0.548021 0.0188734 0.105546
-0.0532736 -0.0112283 0.0745961
0.53294 -0.0367099 0.0821974
-0.666656 0.00113934 -0.0575408
-0.223463 -0.0220239 0.0338494
0.178313 0.0263053 -0.167649
0.494328 -0.0157867 0.23118
0.510162 0.0451108 -0.0584732
-0.659462 -0.000890576 -0.026721
0.426026 -0.0120238 -0.0511291
-0.0728202 0.0202574 0.00500302
-0.427272 -0.00711935 0.0260506
0.528963 -0.0432774 0.22647
0.370816 0.0177497 -0.272745
0.120916 0.00375356 0.000316027
0.558028 0.0118053 -0.130568
0.297011 -0.00202679 0.123007
-0.107097 0.00463577 0.0627417
0.171539 -0.0210716 -0.0227176
-0.623826 0.00363127 -0.044361
-0.837902 -0.0181992 -0.0278843
-0.616519 0.0122788 -0.0159714
0.551981 0.0323731 -0.03545
0.164665 0.0175898 -0.00994227
-0.50179 -0.0157439 -0.0221082
0.298548 -0.00240308 0.21991
-0.0457163 -0.00129614 0.103069
-0.0178535 -0.00680577 -0.047041
0.246645 0.0498417 -0.205775
0.390349 0.00362186 -0.0123035
-0.186375 0.00746428 -0.0562102
0.0860412 -0.0465794 0.124871
0.261365 0.00950674 -0.215844
0.266227 0.0053591 -0.141592
-0.19442 0.00723954 0.0412854
0.216539 0.0476226 -0.0856168
0.371711 0.0323417 -0.0121499
0.258435 -0.00130868 0.19635
0.0491306 0.0134035 -0.0850063
0.343378 0.0204413 -0.24679
0.326693 0.0576582 -0.2677
0.280038 -0.0381231 0.0615491
-0.643777 0.00178845 -0.0497086
-0.353543 -0.00986946 0.0475623
-0.00448554 -0.00148429 0.0101792
0.445 -0.0610062 0.249611
0.42282 0.0269366 0.0433551
-0.182271 -0.00993531 0.0586139
-0.249416 0.00358109 0.0603846
-0.721778 -0.00684967 0.00608488
0.493313 0.0110213 -0.144088
0.127144 -0.0176839 -0.0793305
0.114585 -0.0429512 0.0754271
-0.568106 -0.0105478 0.0383994
0.392974 0.0502775 -0.28357
0.442767 0.0231183 -0.236688
0.109397 -0.00433997 0.0208378
0.245232 -0.00011603 -0.175898
0.239895 -0.039897 0.0651479
0.115831 0.0421087 -0.133583
0.130252 -0.0348671 0.0322355
0.176913 0.0380353 -0.0309459
-0.470028 -0.0117708 -0.0445878
0.245829 0.0544126 -0.135179
0.418584 -0.0129467 0.280109
0.512524 -0.00303338 -0.0139059
-0.92591 0.0110015 -0.0273439
-0.0456745 0.0123875 0.0188456
0.457381 0.0350762 -0.0201859
-0.52559 0.016625 -0.0370712
0.520557 -0.0211782 0.153969
-0.384488 0.00893079 0.0190619
-0.140852 0.0151104 -0.00383579
0.217334 -0.0139408 0.178784
-0.423962 0.00173619 -0.0357239
0.504273 0.0373298 -0.0234712
0.0661121 0.00599044 0.0651688
0.489534 -0.0152181 -0.0615463
0.567502 -0.0108865 0.1164
0.267924 -0.0562764 0.169808
-0.182034 -0.00730332 0.0349605
-0.0752964 0.0175909 -0.0150254
0.24157 0.00770783 -0.20195
0.475588 0.00927782 0.00434764
-0.0876599 -0.0206368 0.0337543
-0.325137 0.0152819 -0.0163414
-0.223764 0.00321211 0.0642521
-0.0277355 -0.0139638 -0.00359433
-0.17011 0.0127502 0.00887784
0.436397 -0.024266 0.253239
-0.42583 -0.0172125 0.0478132
-0.0698861 0.00788866 0.0450338
0.148479 0.0113527 -0.155149
0.301065 0.0143192 0.0368995
0.0836967 -0.0155442 -0.0951977
0.534815 0.0549029 -0.121749
0.00610201 0.00154804 0.0887888
-0.557418 -0.000312541 -0.0239343
0.513039 0.0496671 -0.09158
-0.628072 -0.00385915 -0.0139707
0.154147 -0.0481494 0.109882
-0.304944 -0.00216267 0.00314767
-0.915169 0.00943461 -0.0459738
0.226112 -0.00964786 -0.122198
-0.251741 0.0116516 0.0105618
0.416995 0.0219371 -0.278327
-0.444211 0.00447167 0.0427959
0.0157425 -0.00945867 0.110288
0.477911 0.0407624 -0.0693816
-0.319899 -0.00584307 0.017401
-0.221014 0.00488246 -0.0424732
0.012243 0.00480824 -0.0275175
-0.365212 0.0147373 -0.0154832
-0.768523 -0.00356856 -0.0244904
0.232703 -0.0358748 0.0421175
0.0705743 0.000666878 0.0982182
0.0824225 -0.0157219 0.0988328
-0.103834 -0.0133669 0.0771487
-0.296639 0.00473821 0.0503281
-0.779109 -0.0148199 -0.0450352
-0.112414 -0.0161379 0.00452429
-0.334572 0.00299574 -0.0379179
-0.642155 -0.00730854 0.0063901
-0.0117732 -0.0245033 0.0622703
0.0235821 0.00887539 0.0447662
0.464725 0.0414126 -0.0438038
0.240313 -0.0406788 0.185724
0.119322 -0.0124147 -0.11225
-0.189882 0.00204141 -0.0230521
0.295528 -0.0369033 0.102037
-0.803406 -0.00557235 -0.0143209
-0.824773 -0.0025442 -0.0268171
-0.039245 0.00732526 -0.0462142
0.0380643 -0.0114175 0.0814395
0.0576569 0.00888898 0.0468055
-0.25795 -0.0240851 0.0443941
0.338174 -0.0605014 0.260693
-0.0972565 0.00300829 -0.0157707
0.47368 -0.0110736 -0.02028
-0.285625 -0.0108771 -0.0386266
0.545157 -0.00760854 -0.0988112
0.249491 -0.0136669 0.0322355
0.27229 0.0659483 -0.202074
0.29257 -0.016046 -0.0642378
0.566767 0.0181773 -0.0782048
0.392066 -0.0345086 0.251754
0.408118 -0.0163721 -0.020188
0.297482 0.0491967 -0.249122
-0.487471 -0.0185546 -0.00391628
-0.132762 0.00866738 -0.0602878
-0.712713 0.00203096 0.0227653
0.517438 -0.00143098 0.0970392
-0.0578299 -0.00297798 -0.0730923
0.317319 -0.057607 0.247504
0.529922 -0.0027313 -0.137718
0.574531 -0.00232051 0.0924483
0.162715 -0.0234308 -0.0403231
-0.0124045 0.00351002 -0.0210556
0.210672 -0.0169073 -0.076918
0.289664 0.00361245 0.162065
-0.396153 -0.00670228 0.0179487
-0.233339 0.0170442 -0.0214862
0.476436 0.0343633 -0.191296
-0.802278 -0.0012606 -0.0333239
0.22555 0.044307 -0.0646455
0.336713 -0.019742 -0.0438404
0.0560137 0.00904055 -0.0508469
0.291104 -0.0355894 0.0457028
-0.341852 -0.00623505 0.0184494
-0.486144 -0.00762003 0.0254778
0.0895408 -0.017178 0.0664336
0.324952 -0.0198351 0.214692
0.296058 -0.0513145 0.169429
0.513065 -0.0260722 0.251995
0.470174 -0.0158683 -0.0560178
-0.0752797 -0.0238792 0.01163
0.469622 0.0181292 -0.256287
-0.749062 0.00709321 0.00771132
0.487492 -0.0163564 0.0627929
0.0826974 -0.0126426 0.000319163
-0.780125 -0.0051856 -0.00778692
0.461887 -0.0301174 0.0276112
0.0874189 -0.0360201 0.0835897
-0.366045 -0.00240936 -0.00660471
-0.539327 -0.0216026 0.0116259
0.170943 0.050843 -0.156592
0.398608 -0.0324849 0.0395492
0.540453 0.000758862 0.192101
0.510839 -0.0130732 0.195469
-0.277123 -0.00142889 0.0756592
0.441704 0.0138802 0.0543837
0.12679 -0.0460996 0.143613
0.1974 0.0412589 -0.175705
-0.765265 -0.0198236 -0.0133739
0.102275 -0.0235301 -0.0448846
-0.212635 -0.00911582 0.0516848
0.284962 0.0113224 -0.233099
0.458817 0.0310592 -0.220178
0.0505187 0.00726463 0.0170163
0.279689 0.00552739 0.0359399
0.0734771 -0.0166365 0.115763
0.581796 -0.0154397 0.0285875
0.484302 -0.0546656 0.235018
-0.368642 0.0052044 -0.0536325
0.556669 -0.0301331 0.152002
0.40364 0.00898828 -0.0450885
-0.66253 -0.00585143 -0.00384415
-0.705028 -0.00262259 -0.0263645
0.108917 -0.0268907 -0.0220852
-0.163817 0.00896215 0.0325856
-0.14722 -0.0175951 0.0113301
0.17246 0.0513469 -0.111284
0.250289 0.0379235 -0.0355201
-0.751081 0.0117029 -0.0207922
0.197346 0.0533193 -0.121873
-0.076903 -0.00971267 0.056329
0.414634 -0.011822 0.260875
0.304228 0.0382998 -0.216154
0.210046 -0.0228402 0.0287599
-0.125174 -0.00214804 0.0142328
0.446139 -0.0212702 0.00954473
0.528087 0.0102604 0.115266
0.523663 -0.0160407 0.132431
-0.535493 0.0111008 -0.00368527
-0.574366 -0.00448213 0.0006756
0.269657 -0.00362396 -0.111593
-0.448719 0.0127533 -0.0084653
0.492365 -0.0296157 0.0234197
0.0869506 0.0148732 -0.00421836
0.443633 0.0288045 0.0235399
-0.165776 0.0199469 -0.03769
0.0105026 -0.0230305 0.0763135
0.186483 -0.0517786 0.134233
0.283227 -0.0589366 0.206682
-0.566798 -0.0101674 -0.0604728
0.214095 0.0214134 0.0738759
-0.374816 -0.0114865 0.0620226
-0.897822 -0.0184522 -0.0300533
-0.972062 -0.0195717 -0.0277777
0.219537 0.0100367 0.145909
-0.451914 0.0170912 -0.0406649
-0.216517 -0.0154115 -0.00641866
-0.0772552 0.00923706 -0.0603442
0.0290415 -0.0139126 0.0577777
0.256761 0.0473497 -0.0870289
0.546151 0.00998234 0.152862
0.505584 0.00154386 -0.162345
0.18368 -0.0352769 0.0366643
-0.0258039 -0.00702214 0.0504138
-0.698682 -0.0211155 -0.00128115
0.186959 0.0440007 -0.0651598
-0.725006 0.0138676 -0.0324961
0.583009 0.00422916 0.0507535
0.412782 -0.049019 0.281993
-0.315299 -0.0268687 0.057968
0.0325787 -0.015886 0.0119896
0.500447 -0.00590579 0.0747571
-0.136587 -0.00872802 0.0540221
0.0662699 0.00502566 -0.025498
-0.467461 -0.0048302 0.00199369
0.175955 -0.0415203 0.0704328
0.463013 0.0301049 0.0305484
0.119597 0.0454463 -0.0782487
-0.604977 -0.0216256 0.00768205
-0.631793 0.00964576 -0.00071043
0.566817 0.0239116 0.0598839
0.564414 0.00302501 -0.0576275
0.215862 0.0147665 0.115897
-0.126071 0.0199532 -0.0373399
-0.393055 0.00310968 -0.0422568
-0.23671 0.0076148 -0.0602669
-0.62465 -0.00815312 0.020149
0.160946 -0.0391182 0.0547161
-0.412238 -0.00935518 0.0577788
0.407166 -0.0530684 0.250225
-0.682515 -0.0121994 0.0203006
-0.273694 0.00187417 -0.0197626
-0.326504 -0.00879492 0.0351633
0.480425 0.00578453 -0.0930518
-0.561352 0.00723954 0.0184734
0.505633 -0.0495553 0.208672
0.525429 0.0247081 0.00114493
0.372667 0.0757999 -0.256943
-0.883397 0.0112764 -0.0263917
-0.90585 -0.00486679 -0.0175623
-0.487463 0.0102928 -0.0420812
0.443653 0.0123446 -0.0592477
0.0478533 -0.0016923 -0.0744355
-0.271449 -0.00884509 -0.0502552
-0.283391 0.0143913 -0.00826565
0.0886962 0.036111 -0.122557
0.326702 0.00549708 0.0771602
0.508568 -0.0629044 0.239918
-0.0326368 -0.000899984 -0.08396
0.389026 -0.0130251 0.0192605
-0.0212193 -0.0115806 0.0787532
-0.295437 0.0191943 -0.0389496
0.184941 0.00859526 -0.172473
-0.0576951 -0.015401 0.100005
-0.749963 -0.000431702 -0.0351741
0.0922993 0.048718 -0.10618
-0.517358 0.0126969 -0.0123819
-0.116441 0.0019557 -0.01049
0.385864 0.0294516 -0.248352
0.314296 -0.00599359 0.2395
0.492662 0.0444272 -0.246944
0.399392 0.0382872 -0.0232339
0.285028 -0.0201946 -0.0433157
-0.884501 -0.00572078 -0.0184476
-0.3445 -0.00069093 0.0675102
0.356409 0.045648 -0.280101
-0.972786 0.00908027 -0.018432
0.0820566 0.00954959 0.0442519
0.359186 0.0477239 -0.243741
0.504668 0.05128 -0.232245
-0.586501 0.00234558 -0.0421074
-0.392572 -0.0239764 0.0353619
-0.119023 -0.00563506 -0.0605355
0.431762 0.000389881 -0.0180504
0.264397 0.0487546 -0.144347
0.555224 -0.0426262 0.11803
0.283155 0.0682154 -0.217481
-0.53576 0.00213757 -0.0451397
-0.333033 -0.0191149 0.00913185
0.0272039 0.00833812 -0.0483142
-0.476627 -0.00215745 -0.0150296
-0.0398889 -0.0174937 0.0903661
0.249107 -0.00069093 -0.0318501
0.487996 0.0225643 0.00550371
0.104803 0.0354608 -0.0177003
0.425766 0.0335825 -0.0454428
0.541615 -0.00934159 -0.0289192
-0.17855 -0.0133063 -0.0170167
0.524361 -0.0284826 0.116073
-0.828033 -0.0133293 -0.0532447
-0.131944 -0.0218587 0.0385238
-0.399058 -0.00851269 -0.0602324
-0.250141 -0.00214072 -0.00105223
0.497086 0.0184334 0.0632539
-0.268215 0.00654026 0.0410043
0.516423 -0.0488403 0.17949
0.0213713 -0.00817716 -0.0361639
0.13201 0.0423377 -0.141631
0.104919 0.0151261 0.025529
0.210117 0.0400579 -0.040253
0.433732 -0.0292718 0.0414307
0.445927 -0.0160616 0.281151
-0.65552 -0.0217563 0.00534587
-0.532884 -0.00901233 0.0236684
-0.216292 0.0114196 0.0141972
0.160606 -0.0517535 0.132957
-0.174828 0.00256718 0.071268
0.211355 -0.0113255 -0.112008
0.502701 -0.0425781 0.259191
0.198163 0.0469829 -0.0828238
0.521578 0.0627926 -0.181029
-0.730147 0.000921924 -0.0497462
0.445596 0.0152745 -0.252628
-0.52352 -0.00374626 -0.00816321
0.482875 -0.0160637 0.271977
-0.021028 0.0098015 0.0362922
-0.0760166 -0.00365741 0.0265753
-0.43657 -0.00788658 -0.0664162
0.363062 0.0191316 0.0304407
-0.140949 -0.0239451 0.0781553
0.311955 0.0609195 -0.257983
0.0150589 -0.000895803 0.0152383
0.327454 0.0210413 -0.238558
-0.356715 -0.0204654 0.0159742
-0.817231 -0.00650159 -0.0019888
0.148759 0.0439923 -0.0674813
0.520378 -0.0043337 0.233035
0.535927 -0.0317512 0.0388834
-0.223619 -0.00655072 -0.061401
0.519098 -0.0263095 0.0109893
0.540507 0.048626 -0.0852729
0.413023 -0.0661103 0.274836
0.136855 -0.00116757 0.0236486
-0.249605 -0.0144373 -0.0144704
0.470838 -0.0668493 0.260115
0.446499 0.0156028 0.0118767
-0.0760856 -0.000301043 -0.0015571
-0.165841 0.00362291 -0.0238182
-0.242908 3.34435e-05 -0.0751557
0.536535 0.028699 0.0440596
-0.327185 0.00789702 0.0289826
0.00960785 0.00760434 -0.044894
-0.0980572 -0.00649219 -0.0539618
0.0767404 -0.0189811 -0.0709443
-0.236571 0.0095381 0.0245182
0.360052 -0.0172146 0.0244869
-0.154846 -0.00914195 0.0479668
0.545318 0.00225883 -0.144991
0.350726 0.0252747 -0.0123506
0.309703 -0.0305366 0.24758
-0.134846 -0.0121617 -0.0213451
-0.455232 -0.0185891 0.0443418
-0.265999 -0.0107997 0.0587362
0.515466 0.0233545 -0.221365
-0.507847 -0.00629149 0.00847751
0.446543 0.0334936 -0.277819
0.225569 -0.0519301 0.137596
0.434408 0.0762849 -0.257955
0.43397 0.0478285 -0.279227
0.29811 0.0315202 -0.25235
0.201706 0.0237297 0.0424154
0.00147877 -0.00412987 -0.0623135
-0.0110927 -0.00196825 -0.0764017
0.398482 0.0261955 0.047186
0.297857 0.028838 -0.024229
-0.599496 0.0115461 -0.0104022
0.506725 0.00553889 -0.192201
-0.280723 -0.0187198 0.00995343
-0.0913727 0.0188797 -0.0239625
0.208033 0.0584202 -0.15762
-0.613057 -0.0138195 -0.0408698
-0.698915 -0.00865799 0.0111659
0.317091 0.0110997 -0.0609327
-0.442746 -0.0140202 -0.0290488
0.184229 -0.0118868 -0.111017
-0.437647 0.00373161 -0.0488535
0.269016 0.0260314 -0.135753
0.0181697 0.0137735 -0.0823315
-0.862074 0.0111321 -0.0241768
-0.437857 0.00715906 0.0266516
0.535119 0.051166 -0.181802
0.268042 -0.0495145 0.203613
-0.0937026 -0.0283896 0.0826437
0.540894 0.0108269 -0.170607
-0.0192197 0.0133063 0.0148338
0.0246838 0.00254105 -0.0127875
0.294783 0.0388287 -0.0655538
-0.458433 -0.0228622 0.0244064
0.572524 -0.027569 0.0402653
-0.351695 0.00937608 0.0183585
-0.409119 -0.00320585 0.00309227
0.182099 0.0257429 -0.0151665
0.453455 0.0620149 -0.223425
-0.389578 -0.012698 -0.0338811
0.494582 0.0467288 -0.134253
0.300075 0.0162174 -0.217532
0.199211 -0.0406767 0.0666855
-0.40639 -0.00969594 0.0357434
0.297339 -0.0244771 0.131595
0.134949 0.0263868 -0.00344904
0.0664779 0.0122861 -0.0859011
0.268977 -0.0507981 0.138749
-0.255415 -0.00976911 -0.0435697
0.2059 -0.0297913 0.17169
-0.124812 0.0171006 -0.0150892
0.529535 -0.00168707 0.21415
-0.546852 -0.0104903 -0.0572481
0.163761 0.0249684 0.0481173
0.0747429 -0.00984542 -0.0225733
-0.104159 -0.0224765 0.0440575
0.128747 -0.0261224 -0.0225754
-0.201136 0.00973774 0.0254935
-0.339215 -0.0034609 0.00153899
0.0564621 -0.0173776 0.0277899
-0.0692129 0.00168811 0.0832426
0.531763 -0.0530632 0.170417
-0.0133881 0.00362291 0.074801
-0.0904978 -0.0106325 -0.0280046
0.331182 0.0742979 -0.256832
-0.236956 -0.00618383 0.0321278
0.060338 -0.00941372 0.0704903
-0.672197 0.000858163 -0.0382764
0.248785 -0.0462083 0.105527
-0.550348 -0.0160606 -0.0231754
0.495031 -0.0081249 0.25893
-0.520967 -0.0104255 -0.0560366
-0.812725 0.000332391 -0.0512441
-0.83865 -0.00564447 -0.0160696
-0.500127 0.000539355 -0.0330888
-0.0973663 0.000698236 0.0875836
-0.871659 -0.00286927 -0.0352044
-0.409316 0.00162748 -0.0266739
0.0422276 -0.0172376 0.0431053
-0.309424 0.0105332 0.0138638
0.276178 0.0510573 -0.230739
0.519503 0.0224838 0.0678374
-0.231678 -0.0204946 0.068706
-0.390601 -0.0157167 -0.015363
0.0851465 0.00818238 0.104802
-0.510183 -0.0107611 0.0455271
-0.233451 0.00625594 0.0449146
-0.0219625 -0.010228 -0.0262318
-0.462146 0.00972206 0.00936285
-0.793442 -0.0205229 -0.0108203
-0.149976 -0.00587757 -0.0609693
0.209789 0.0116537 -0.0231932
-0.915961 -0.00392082 -0.0314822
0.410513 0.0137798 0.0193703
0.173674 -0.00423544 0.0269015
-0.0349176 -0.00834859 -0.0386036
0.408505 0.0642622 -0.242058
-0.0831715 -0.00344417 -0.0717983
0.34976 -0.0215775 -0.0315052
0.253835 -0.0167432 -0.0763337
-0.204316 0.00116756 -0.0765605
-0.781587 -0.000755736 -0.0351458
-0.70961 -0.0042344 -0.00925761
0.278817 -0.0579958 0.182853
-0.914012 -0.0222402 -0.00773883
-0.950291 0.00712352 -0.0466574
0.0888499 0.0382705 -0.0372448
0.153012 -0.00175397 0.158805
-0.287447 -0.00985587 0.0515887
0.311723 0.0192476 0.0735226
-0.591281 -0.00233723 0.0369538
0.487133 0.0269199 -0.102708
-0.861549 -0.00508211 -0.0134857
-0.643204 -0.000935523 -0.0329079
0.245856 0.0210162 0.0401158
-0.285042 -0.00681726 -0.0635804
-0.268741 0.011383 0.0111597
-0.348122 -0.0131997 -0.0282147
-0.487478 0.0114917 -0.00310306
0.463129 0.00588801 -0.017926
0.576277 -0.00624759 0.0086228
0.557124 -0.0134965 -0.00205569
-0.263955 0.0178877 -0.0285805
-0.314565 0.00489814 -0.0483842
0.522489 -0.0306829 0.0940988
-0.714388 0.0118544 -0.0194448
0.307637 -0.0274478 0.0928706
-0.578267 -0.000797547 -0.0222503
0.267848 -0.0404656 0.0757188
0.1892 0.00246788 0.165221
-0.445566 0.00242816 -0.0338549
-0.0427111 -0.00900293 0.0615532
0.185119 -0.00805068 -0.135018
-0.965867 -0.00644097 -0.0190727
-0.737602 -0.0110548 0.0144073
0.525176 0.00344521 0.131815
0.407426 0.02138 -0.0113408
0.118033 0.00825973 -0.140958
0.554622 -0.040383 0.0973663
-0.310549 0.00306159 0.0597878
-0.893907 -0.00226197 -0.0328515
0.372987 -0.0217103 -0.0275896
-0.373814 0.00222851 -0.069414
-0.685869 -0.000859218 -0.0285554
-0.470373 -0.017248 -0.0108945
-0.723689 -0.0024658 -0.0284864
0.473622 -0.0248754 0.243925
0.0483226 0.00630403 -0.0344821
-0.19339 -0.00569882 -0.0647709
0.300744 -0.019026 0.161903
-0.0492671 -0.022095 0.00226441
-0.497225 -0.00858586 -0.0658831
-0.834734 0.000203823 -0.0443526
-0.239581 0.00149891 0.0738174
0.0113461 0.0115168 0.0277513
0.187397 0.0241269 0.0555189
-0.138686 -0.00378075 -0.0731749
0.376364 0.0191264 0.0571934
-0.542675 0.00772141 0.0166714
0.524124 0.0589993 -0.146423
0.277841 0.0187354 0.086969
-0.0698913 -0.0123551 0.0730261
-0.933232 -0.00218358 -0.0357793
0.385221 -0.00466819 0.0549252
-0.657617 -0.017131 -0.0232559
0.253335 0.0218598 0.0726634
0.106259 0.00594654 0.0439603
0.571831 -0.0192372 0.0995499
-0.191623 0.0159749 -0.0123119
-0.996603 0.00104527 -0.0323748
0.564639 0.0274614 -0.0996025
0.223253 -0.000789185 0.032595
0.513681 -0.0111248 -0.0861122
-0.799455 0.00887226 -0.00637371
-0.106066 -0.00214281 0.0153888
0.0673434 0.0463024 -0.0955834
-0.257749 0.00943984 -0.0728132
-0.145337 0.00255255 -0.0234263
-0.0461992 -0.00386646 0.0297206
-0.379901 0.00401384 0.04961
0.348355 -0.0281241 0.0575509
-0.0141083 -0.00585039 0.0364552
-0.6023 0.00620473 0.0223012
0.0689448 0.00458874 -0.1178
-0.0117439 0.00645664 -0.0391566
-0.359629 -0.00846043 -0.0581052
0.103185 -0.010645 -0.11968
-0.188121 -0.0158463 -0.00197625
-0.611681 -0.00216894 -0.0233552
0.0664058 -0.0078824 0.0185466
0.176736 0.0196542 0.083389
0.560949 0.00403788 -0.111509
-0.373862 -0.0170013 -0.00641552
0.271738 0.0132718 -0.167989
0.271736 -0.0281502 0.211829
-0.461962 -0.00937713 -0.0588192
0.176738 -0.0144404 -0.0956367
-0.259029 -0.0205124 0.0223399
0.0173481 -0.0132227 0.0912609
-0.459963 0.00559011 0.0349312
0.536755 0.0397569 -0.0402196
-0.136041 0.000409741 0.0869596
-0.343813 0.00628939 -0.0587638
-0.278342 -0.00631553 0.0228928
0.155704 0.0489448 -0.0975391
-0.200371 -0.0276746 0.0700691
0.132591 0.00353301 -0.147134
0.0362037 0.00396784 0.0757616
-0.64203 -0.00880119 0.0296672
-0.533165 -0.00479676 0.0051734
0.496774 0.00372848 -0.127797
-0.636924 -0.0130126 -0.0473212
0.398933 -0.0214542 -0.0328933
-0.544595 -0.00391768 -0.0084214
-0.166808 -0.00628313 -0.0595174
-0.0703554 0.00613678 -0.0408321
-0.365268 0.0183257 -0.037574
-0.811309 0.00678799 0.00572112
0.34771 0.0297035 -0.043276
-0.585507 0.00912626 0.0053626
0.267895 -0.0119412 -0.0926389
-0.523434 -0.0161641 -0.0208654
0.287694 -0.0333044 0.226786
0.567804 -0.0351932 0.0886613
-0.779258 0.00680785 0.00759111
0.349679 0.026253 0.0454205
0.206154 -0.00497236 -0.152513
0.326772 0.00224001 -0.0202215
0.491128 0.0698137 -0.214849
-0.0920009 -0.00110695 0.0024118
0.379698 0.0167034 -0.00963078
-0.25294 -0.00847088 0.0452115
0.133667 -0.0435774 0.0804664
-0.576213 0.00367935 0.0394708
-0.648518 -0.00999071 -0.0600902
-0.944099 -0.0196751 -0.025406
0.0852123 0.000321938 0.0887826
-0.227395 -0.00211145 0.000183277
-0.525805 0.00558383 0.0308756
-0.511139 -0.0015146 -0.0211319
-0.10863 0.0162853 -0.00906215
-0.31947 -0.00769947 -0.0602878
0.330289 0.0268269 -0.0170585
0.517341 -0.000733786 0.176911
-0.392999 -0.002101 -0.00270585
0.0880314 -0.00517305 -0.0341947
0.385615 0.0360023 -0.0347288
-0.711098 -0.000210105 -0.0415879
-0.161212 -0.0252454 0.0757062
0.177799 -0.0129122 0.165844
-0.311668 -0.00103378 -0.0116889
0.0642045 -0.0034724 0.0341536
-0.589668 -0.0226061 0.0146707
0.22445 0.0521904 -0.113669
0.401174 0.0206964 -0.25213
-0.862365 -0.0178804 -0.0313714
0.203886 -0.00777682 0.0294488
-0.0640827 -0.0135561 -0.0217915
-0.049265 -0.0209012 0.0377712
-0.345342 0.0153488 -0.0180097
-0.360191 -0.0069197 0.028992
-0.158746 0.0173609 -0.0187999
0.338519 -0.0287617 0.267849
0.276516 0.0238405 0.0610034
0.0944118 -0.0358246 0.0479417
0.160063 0.0105959 0.138795
0.0297345 -0.0103221 -0.0224385
0.070752 0.0149056 -0.0542064
-0.982202 0.0117123 -0.0461923
0.230978 0.0493075 -0.0954486
-0.30603 -0.0166334 -0.00445877
0.106139 0.00627058 0.0659371
0.368899 -0.00439955 -0.0458306
0.0988761 0.0450407 -0.0770393
0.0166613 0.0106032 -0.0629103
-0.2145 0.0146432 -0.00553436
-0.88877 0.00704408 -0.0006728
0.0722562 -0.0119934 -0.0559614
-0.150492 -0.0132896 -0.0153745
-0.0433456 0.00522217 0.00260831
-0.644189 -0.00295603 -0.0130561
0.570555 0.025745 0.0270342
0.291238 -0.0428906 0.136955
0.0578273 -0.000431702 -0.0908389
0.0951821 -0.011129 -0.0128648
0.474172 0.0519259 -0.194229
-0.584305 0.0139941 -0.024529
0.341965 -0.0193898 0.23256
-0.166361 0.00941893 -0.0670005
-0.63106 0.00654235 0.0184358
-0.695975 -0.0239576 0.0163829
0.375391 -0.00923602 0.267627
-0.0152518 0.00150623 -0.00142853
-0.267559 -0.000935523 -0.00208183
-0.119364 0.0061211 -0.0437777
-0.446417 -0.00689462 0.0539865
-0.386017 0.0153467 -0.0205277
0.370899 0.0577491 -0.280943
-0.44228 -0.000103487 -0.0180693
0.44392 0.0339253 -0.0530785
0.304434 0.0712676 -0.233215
-0.481999 0.00476957 0.0386116
0.155378 0.0201486 0.0793626
-0.123063 0.00312117 0.0710704
-0.127689 -0.0133115 0.0920532
-0.415357 0.00432951 -0.0511531
-0.178967 0.00611797 -0.0399959
-0.620901 -0.0237371 0.0196922
0.185462 -0.0526859 0.152501
-0.467721 0.00345566 -0.0490281
0.441396 0.0345253 -0.0191971
0.280581 -0.0468083 0.125557
-0.197909 0.000165148 -0.00452985
-0.336 0.0129969 -0.00295463
0.425243 -0.0298049 0.0235712
0.140842 -0.0235981 -0.0413192
-0.0861798 -0.012723 0.0742773
-0.441012 -0.00594028 0.0104677
0.159208 -0.00171425 -0.15462
0.453657 -0.0290627 0.0412645
0.503866 -0.0577554 0.254377
0.470563 0.0280289 -0.0145937
0.151636 -0.0126906 0.0233789
0.477949 -0.0110182 0.000897198
0.56358 0.0341354 -0.0621421
0.468875 -0.00759913 0.263817
-0.54855 -0.0105541 0.0396548
0.182233 -0.0467613 0.103083
0.113613 -0.0103963 -0.000187794
-0.71503 0.00755103 0.00700681
-0.0990826 0.0119454 0.0182435
-0.203318 0.00513123 -0.0354333
0.272409 -0.0363974 0.0476783
0.579812 -0.0195748 0.0659486
0.371827 -0.0198936 0.05469
-0.59691 -0.0090092 0.0196703
-0.693328 0.00726463 0.0101175
0.475627 -0.0352696 0.274666
0.39305 -0.0279192 0.0232336
-0.293001 -0.021472 0.0261321
-0.697352 -0.00189717 -0.0567694
0.474084 -0.0439526 0.240728
-0.244212 -0.00502671 0.0170822
-0.0143257 0.0170076 -0.0129547
0.00761556 0.00212399 -0.0112802
-0.457833 -0.0132739 -0.0345814
0.0214027 -0.00681831 0.0446219
0.128019 0.0378879 -0.0311968
0.562763 -0.0326281 0.127728
-0.926213 -0.00595701 -0.0195859
-0.196449 -0.00277206 0.0136422
-0.0488343 -0.00548036 -0.0571248
0.536361 -0.0491131 0.146668
-0.0749786 -0.0222193 0.0442885
-0.582202 -0.00676187 0.0142234
0.430454 0.0646417 -0.236496
-0.732383 -0.00471313 -0.00772734
0.425582 0.0267548 -0.0142206
0.0408646 -0.000123347 0.101235
-0.138354 -7.631e-05 0.000660966
0.463671 0.0185389 0.0547663
-0.378592 0.0017895 -0.0332309
-0.105328 -0.0257429 0.0640859
0.0588203 -0.00675455 -0.0425924
-0.302074 0.00698659 -0.0604655
-0.240679 -0.0242513 0.046493
-0.0282561 -0.00322362 0.0268743
0.197902 0.0180382 0.0944887
0.553302 0.027337 0.049426
0.0981935 -0.0123541 0.0979632
0.251616 -0.0499002 0.128552
0.34405 -0.0354828 0.231552
0.00921169 -0.0100001 0.0634483
-0.787048 -0.00870502 0.00597722
0.289695 -0.00762317 -0.0813719
-0.4588 0.0149463 -0.022588
0.282183 0.033549 -0.0917201
-0.846613 0.0136857 -0.038937
-0.225281 -0.0195393 0.0184431
0.386081 -0.0138007 0.278684
-0.0580411 0.0138185 0.00926773
-0.0545666 0.000697191 0.0902501
0.304636 0.0653671 -0.218664
-0.612484 -0.0068758 0.00556852
-0.493128 -0.00994263 0.0393391
0.00175786 -0.0154575 0.104048
-0.60793 -0.0113203 -0.0559373
0.40221 -0.019811 0.255602
-0.504579 0.00574062 0.0312331
-0.695287 -0.0186267 -0.0163853
0.531233 0.0354922 -0.193786
0.0569367 0.00270516 -0.0117945
0.0407015 0.00983913 0.0398994
0.000603883 0.0115032 -0.0694506
-0.584498 -0.0116861 -0.0522224
0.0798396 -0.002609 0.0298136
-0.348179 -0.0255057 0.0475309
0.00696331 -0.0200974 0.0363183
-0.333758 0.0177456 -0.0320477
-0.246628 -0.0129185 0.0655086
0.432941 -0.0510782 0.249343
0.18212 0.0141237 0.118451
-0.121813 -0.00774756 0.041436
0.123462 -0.0219977 -0.0530043
-0.657923 0.00770678 0.00959908
-0.143274 0.00645141 -0.0473013
-0.0884062 -0.00561729 0.0378705
0.546738 0.045069 -0.0714324
0.51162 -0.0302209 0.0715784
-0.0740473 -0.00901233 -0.036951
0.543762 -0.0443373 0.186222
-0.915728 -0.00701064 -0.00497723
-0.883789 -0.0208093 -0.0146721
0.307593 -0.0433213 0.181782
-0.803093 -0.0174153 -0.0305498
-0.428662 -0.0172376 -0.008366
0.412651 0.0372691 -0.243794
0.525884 -0.0118377 -0.00559707
-0.947473 0.0106868 -0.026746
-0.964228 -0.00347658 -0.0372197
0.0836758 -0.0228998 -0.0405227
0.458297 -0.00481871 -0.0680364
-0.417167 0.00573435 0.0367071
-0.673798 0.00451661 0.0279478
-0.19473 -0.00797752 0.0457937
-0.156698 0.00454588 -0.0364033
-0.135574 0.00922765 0.0327038
-0.13442 -0.0188713 0.0199828
0.374539 0.0466996 -0.245549
0.164591 0.0237789 -0.160915
0.369886 -0.0014822 -0.0131262
-0.0147459 -0.0145272 0.0972984
-0.467286 -0.00762212 0.026659
-0.249366 0.017039 -0.02245
0.0921352 0.0133533 0.055359
0.147601 -0.0153822 -0.092225
0.488656 0.0177738 -0.160539
-0.0588156 0.00831408 -0.01774
0.0116681 0.00718101 0.0544569
-0.287511 0.00231632 -0.0308122
-0.765077 -0.00601763 -0.00172852
-0.201293 -0.0108886 -0.0333124
0.495105 0.0615288 -0.173781
0.378265 -0.0402471 0.247927
0.386072 0.0141132 0.0241628
0.0923662 0.0140641 -0.127822
0.164473 0.0534541 -0.124751
-0.197533 0.000993003 0.0795413
-0.810897 0.0134871 -0.0354939
0.558206 -0.00156164 0.148248
0.314109 0.0133784 -0.23821
-0.608588 0.00222956 -0.042769
-0.292104 -0.00344836 0.0118558
0.115364 0.0248712 0.0379259
-0.512477 -0.022004 0.0157672
0.547924 -0.0085566 0.182457
-0.289367 -0.000167249 -0.015639
0.495222 0.0183152 -0.241218
0.144046 -0.0383656 0.0490267
-0.284598 0.00638138 0.0409624
0.141081 -0.0186571 -0.0724234
0.41008 -0.00283478 0.0164696
-0.56275 -0.00938132 0.0240834
-0.264163 -0.00671692 0.0337156
-0.167151 -0.0137004 0.0871467
-0.0287839 -0.0199323 0.0330769
0.255282 0.0616198 -0.175398
-0.752935 -0.0212483 -0.00383579
0.230996 0.00102018 0.18
0.128534 0.0507385 -0.110271
-0.85316 -0.000305224 -0.049834
0.205011 -0.0221692 -0.0429645
-0.421637 -0.0241939 0.0348926
0.308427 0.017733 -0.256662
0.527739 0.0452644 -0.0611261
0.435711 0.0366535 -0.236615
0.343991 0.0162237 -0.265412
-0.108265 -0.00379539 -0.0711941
0.0373943 -0.00202679 0.0161226
-0.548848 -0.0194389 -0.00228461
-0.148997 -0.0128987 0.0714561
-0.160275 0.00048291 0.0850018
-0.488605 -0.00523681 0.0106506
0.0611983 -0.0126708 -0.00602563
-0.69338 0.013693 -0.0294585
0.266204 -0.00025087 -0.125997
0.300888 0.00382255 0.105751
-0.177358 1.98549e-05 -0.00982833
-0.75333 -0.00747474 0.00797264
-0.426445 0.0178867 -0.0386747
-0.0224788 0.00827123 -0.0509911
0.562702 0.0182996 0.0964789
0.516996 -0.0318337 0.0505622
0.176584 -0.0192738 -0.0652079
-0.154806 -0.00440582 0.0262868
-0.668881 0.01099 -0.0112928
-0.734264 0.00776218 0.00450861
0.0831594 -0.000672115 0.136717
0.410692 -0.0315766 0.0304512
-0.642926 0.0162843 -0.0422715
0.522285 -0.0228455 0.240417
0.555466 -0.0251179 0.0158456
0.503284 0.057331 -0.147805
0.531939 0.0182975 -0.0157812
-0.758398 -0.0139627 -0.0490218
-0.976367 -0.0172888 -0.0421011
0.35542 -0.0165906 0.243557
0.502845 0.0133168 9.7565e-05
