ply
format ascii 1.0
comment Created by Open3D
element vertex 1592
property double x
property double y
property double z
end_header
-0.246805 -0.0203938 -0.153513
-0.140243 -0.0223873 0.0837983
0.268249 -0.0223873 -0.0430504
-0.500336 0.00598896 0.0606739
-0.388432 0.00598896 -0.0504704
0.17802 0.0196021 -0.286174
0.171264 -0.0223873 0.15524
0.134477 -0.0223873 0.102027
0.194939 -0.0223873 0.205144
0.478501 -0.0223873 -0.133076
0.167921 -0.0223873 -0.254389
0.268395 -0.0223873 0.348107
0.21433 -0.0211595 -0.209161
0.0682179 0.0196021 -0.120148
0.402404 0.0224743 -0.305448
0.458484 0.0196021 0.182444
0.024771 -0.0223873 0.179741
0.177163 0.0196021 -0.140934
0.419179 -0.0223788 -0.285854
0.208184 0.0224173 0.228256
0.146566 0.0196021 -0.037845
-0.0769313 0.0196021 -0.128891
0.123244 -0.0223873 0.0525878
0.293621 -0.0211282 0.394196
0.126224 0.0196021 -0.202023
-0.116616 -0.0223873 -0.0493944
0.0485065 0.0196021 -0.231715
0.397738 -0.0200209 0.130352
0.393327 -0.0216064 -0.376637
0.215086 -0.0223873 -0.0712626
0.0938899 0.0196021 0.138184
0.0119682 0.0196021 0.134047
-0.400875 -0.0167502 0.10353
0.361824 -0.0198425 -0.103767
0.203622 -0.0223873 0.301726
-0.0838133 0.0196021 0.0591491
0.0160919 -0.0223873 0.0508315
0.133619 0.0196021 -0.0882745
0.146267 0.0196021 0.17301
0.362779 0.0224743 -0.340287
-0.431582 0.00598896 0.0212588
0.108953 -0.0223873 -0.281973
-0.206242 0.0196021 0.169538
0.357626 -0.0223873 0.393208
-0.779485 0.00598896 -0.0457205
0.0819022 -0.0223873 0.184138
-0.190723 -0.0223873 -0.0424489
0.319796 -0.0223873 -0.0565744
-0.471467 0.00598896 0.102573
-0.277377 -0.0180644 -0.0972117
0.434443 -0.0221473 0.177847
0.419425 -0.0223873 0.354546
-0.0562455 -0.0223873 -0.215101
-0.0343631 0.0196021 0.11024
0.278483 0.0196021 0.0509131
0.0808537 -0.0223873 -0.0960826
-0.239029 -0.0223873 0.0479717
0.216484 0.0224173 0.278544
0.443939 -0.0193567 -0.227633
-0.11242 0.0196021 0.107904
0.0439871 0.0196021 0.245359
0.421743 0.0190451 -0.145337
-0.151533 -0.0223873 -0.148841
-0.00397055 -0.0223873 -0.0758645
-0.673587 0.00598896 -0.0770809
-0.136796 0.0196021 -0.0996616
-0.180954 0.0196021 0.0659087
-0.689536 -0.0219119 0.10353
0.163472 -0.0223873 0.0237324
0.475358 0.0196021 0.135999
-0.205525 -0.0223873 -0.119917
0.404387 -0.0194108 -0.127097
0.100689 -0.0223873 0.240686
0.305824 0.0196021 -0.378849
0.193093 -0.0223873 -0.158505
0.402634 0.0196021 -0.0719419
0.447569 0.0196021 -0.308598
-0.178974 0.0196021 -0.0800062
-0.0503522 -0.0223873 -0.0876539
-0.0232559 -0.0223873 0.202054
-0.224373 0.0196021 -0.156155
-0.0564561 -0.0223873 0.129374
0.343283 -0.0195199 0.0904194
0.250522 -0.0223873 0.0917127
0.19169 0.0191106 -0.0404734
-0.0709099 -0.0223873 -0.172834
0.243559 0.0224173 0.140517
0.240404 0.0150362 -0.140928
-0.436809 0.00598896 -0.0942987
-0.954227 0.00598896 -0.00243116
0.168809 0.0196021 -0.184726
-0.110012 -0.0223873 0.0477354
0.256584 -0.0223873 -0.0873493
0.477464 0.0196021 -0.241946
-0.286701 0.00598896 0.0667788
-0.164858 0.0174492 -0.17775
-0.628532 0.00598896 -0.0481059
-0.0259203 0.0196021 -0.187629
-0.0810342 0.0196021 0.18946
0.127941 0.016803 -0.29814
-0.96102 -0.021706 0.0766943
-0.160977 0.0196021 0.157155
-0.00132326 -0.0223873 -0.136899
0.0285456 0.0196021 -0.192838
-0.747844 0.00598896 -0.0922378
0.0479989 -0.0223873 -0.21829
0.483315 -0.0223873 0.20908
-0.83343 -0.0210675 -0.0972117
0.160635 0.0196021 0.214168
0.221949 0.0196021 0.347346
-0.9849 -0.000884506 -0.0679786
0.0518958 0.0196021 0.116145
0.475955 -0.0223873 -0.181525
-0.31636 -0.021429 -0.0105201
-0.585732 0.00598896 -0.0828176
-0.212063 0.0196021 0.111223
0.0977698 -0.0223873 -0.184762
-0.33869 0.00598896 0.0139213
0.388528 0.0224173 0.120375
0.00659488 0.0196021 0.17634
-0.0607914 0.0196021 -0.0442839
0.20447 -0.0223873 -0.295852
0.173168 -0.0223873 0.255164
0.378049 -0.0204725 0.345816
0.187997 0.0196021 -0.327237
-0.141532 -0.0223873 0.182722
0.453444 -0.0223873 0.27382
-0.611593 0.00598896 0.0809822
0.0820777 0.0195746 0.0477259
0.0930559 0.0196021 -0.231138
-0.739291 0.00598896 0.0337399
-0.0614556 -0.0223873 0.050897
0.141474 0.0196021 0.296557
0.46139 -0.0223873 -0.265464
0.0881912 0.0196021 0.238168
-0.0358215 0.0196021 -0.135666
-0.365023 0.00598896 -0.0888011
0.246801 -0.0223873 -0.351617
0.016869 0.0196021 -0.114099
-0.87631 0.00598896 -0.0464521
-0.478895 0.0213262 -0.0325211
-0.50437 0.00598896 -0.0953387
0.245029 -0.0223503 0.303045
0.136442 -0.0223873 -0.227505
0.442913 0.0208071 0.22121
-0.919207 0.00526119 -0.0972117
-0.397251 0.00598896 0.0517975
-0.584508 0.00598896 0.0104741
-0.998393 -0.0109793 0.0109713
0.0155748 -0.0223873 0.11103
-0.305657 0.00598896 -0.0612427
0.221501 -0.0146371 0.174862
0.305539 0.0196021 0.0839312
0.096672 -0.0223873 0.086384
0.187637 -0.0223873 -0.103476
0.41264 0.0224173 0.319312
-0.324051 0.00598896 0.0829615
-0.535335 0.00598896 0.0827774
-0.624715 0.00598896 -0.00757487
0.286273 -0.0172967 -0.339926
0.226741 0.0196021 0.0490135
0.125193 -0.0223873 -0.152328
-0.118265 0.019344 -0.196161
-0.042565 0.0196021 -0.224164
0.0416615 0.0196021 0.204914
0.335652 0.0224173 0.353821
-0.899712 0.00598896 0.0475884
0.454493 0.0196021 0.306754
-0.243735 -0.019907 0.10353
0.136399 -0.0223873 -0.0226711
0.203862 0.0196021 0.135735
-0.167354 -0.0223873 0.123291
0.42014 -0.0223873 -0.341982
0.0808205 -0.0120895 -0.0404734
-0.4402 -0.0215163 0.10353
-0.0182858 -0.0222602 -0.23807
-0.229962 -0.0175283 -0.0404734
0.378621 0.0196021 0.0823817
0.00528167 0.0164415 0.0477259
0.190245 -0.0223873 0.120941
-0.546345 0.00598896 -0.0125924
-0.416331 0.00598896 -0.015326
0.441343 -0.0223873 -0.114914
-0.0906527 -0.0223873 -0.078433
-0.254024 0.00598896 -0.0606032
0.0468583 -0.0223873 0.0812118
-0.21664 0.0196021 -0.0890668
0.0538865 0.0196021 -0.0408719
-0.659346 0.00598896 0.0240721
-0.0823085 -0.0223873 0.15812
-0.722022 0.00598896 -0.0032595
0.130516 -0.0223873 0.187104
0.330475 -0.0223873 -0.382487
-0.0706035 0.0196021 0.0950403
0.351409 -0.020056 0.0489149
0.0485283 0.0196021 -0.152448
0.205579 -0.0223873 0.0478597
0.188401 -0.0223873 -0.00451957
-0.575327 0.00598896 0.0602289
-0.111504 -0.0223873 -0.156609
0.456828 -0.0223873 0.140193
0.0196567 -0.0223873 0.23224
0.125051 0.0196021 0.24372
-0.0950999 0.0196021 -0.167018
0.439288 0.0163789 -0.0782584
-0.108594 0.0196021 0.151434
0.0601498 -0.0223873 0.153655
0.292345 0.0196021 -0.0794948
-0.213768 0.0106459 0.0477259
0.295372 0.0196021 0.378472
0.487187 0.0196021 -0.202287
-0.82172 0.00598896 0.000263573
-0.50949 0.00598896 -0.00232394
0.17723 -0.0223873 -0.211898
-0.858402 0.00598896 -0.00346161
0.444025 0.0196021 0.110811
0.132941 -0.0223873 0.26083
0.174598 -0.0223873 0.324208
0.119258 0.0171313 0.0409682
-0.847268 -0.01987 0.098384
0.426975 -0.0223873 0.0802715
0.326097 0.0224743 -0.329084
0.263477 -0.00987485 0.126094
-0.549343 -0.0215229 0.10353
-0.813039 0.00598896 -0.0610795
-0.157923 -0.0223873 -0.0601107
-0.556305 0.00598896 -0.0615606
-0.0123261 0.0196021 0.0792268
-0.0665832 0.0196021 -0.0899691
-0.656744 -0.021614 -0.0972117
0.361281 -0.0223873 -0.359867
0.212402 0.0224743 -0.255899
-0.0351735 -0.0223873 -0.167729
0.247855 -0.0223873 0.377791
0.159322 0.0196021 1.40254e-05
-0.0472049 -0.0223873 0.167478
0.0738066 -0.0223873 -0.274055
0.103918 0.0196021 -0.115354
0.218461 0.017749 -0.34895
0.228979 0.0196021 -0.0876919
0.0413749 0.0113509 0.0477259
0.489248 -0.021893 0.289851
-0.0301635 -0.0223873 -0.0515417
0.339969 0.0196021 -0.0475271
0.262962 0.0196021 0.348362
-0.469761 0.00598896 -0.0735635
-0.247755 -0.0173385 -0.116971
-0.175711 -0.0223873 0.0812972
-0.0265797 0.0196021 0.144886
-0.460764 0.00598896 0.0507423
-0.850665 0.00598896 -0.0709305
-0.376552 0.00598896 0.0914024
-0.213294 -0.0223873 0.149044
-0.145112 -0.0179021 0.0477259
0.226551 -0.00912431 -0.162667
0.215375 -0.0223873 0.0845233
-0.596217 -0.0199251 0.10353
-0.117593 0.0196021 -0.0432611
0.316 0.016414 0.0479091
0.126572 0.0196021 0.125414
-0.105226 -0.0223873 0.184583
0.498343 -0.0131417 -0.25591
0.107023 0.0134773 -0.0404734
0.259921 -0.00655673 -0.121905
0.249567 0.0196021 -0.332245
0.0708433 -0.00225464 0.25887
-0.125744 -0.0223873 -0.0828736
0.159715 -0.0223873 -0.0727826
-0.193569 -0.0223873 -0.0830814
-0.452148 0.0213262 -0.0105486
0.469959 0.0196021 0.252576
0.176928 0.0196021 0.0826891
0.496691 0.014114 0.1808
-0.297554 0.00575459 -0.0277967
0.234194 -0.0127764 -0.0404734
0.28129 -0.0223873 0.0763755
-0.963905 0.00598896 -0.0416423
0.303706 -0.0223873 0.360303
-0.103476 -0.0223873 0.114254
0.042356 -0.0223873 -0.0796124
0.208054 0.0196021 -0.118477
0.367627 -0.0166344 0.114171
-0.81233 0.00598896 0.0645652
-0.0606036 0.0196021 -0.159013
0.426358 0.0196021 -0.111631
0.455406 0.0196021 -0.149151
0.39392 -0.0205342 -0.0508946
-0.0052496 0.0196021 -0.0711098
0.364042 0.0196021 0.385502
0.207892 0.0196021 0.311731
-0.940467 0.00458466 0.0810704
-0.266694 0.00598896 0.101757
0.0481013 0.0196021 -0.265188
0.0611584 0.0196021 0.0803407
0.41433 0.0196021 0.352519
-0.14518 -0.0137272 -0.184747
-0.0233793 -0.0160575 0.0477259
-0.050856 -0.0223873 0.0845508
0.278384 0.0196021 -0.354156
-0.210545 -0.0223873 0.0752008
0.151787 0.0196021 -0.22585
-0.141084 0.0196021 0.0908464
0.451376 -0.0140726 0.345184
0.0868941 0.0196021 -0.152471
0.380119 -0.000819035 0.0564051
0.00456529 -0.0223873 -0.169425
0.388626 0.0196021 -0.37504
0.443534 0.00409031 -0.346671
-0.596751 -0.0214755 -0.0972117
0.163712 -0.0223873 0.194954
0.367362 0.00770258 -0.0868389
-0.0719366 -0.0223873 -0.113359
-0.0342607 0.00593772 0.214368
0.165022 -0.0223873 -0.14187
-0.976159 0.00598896 0.0277527
0.00368761 -0.0209992 -0.0404734
0.113574 -0.0223873 -0.121499
0.470022 -0.0223873 -0.296881
-0.760392 0.00598896 0.0904327
0.266042 0.00987544 -0.0404734
0.16793 0.0196021 -0.0624278
-0.275633 -0.0215836 0.0541136
-0.189994 0.0196021 0.134728
-0.728655 -0.0220011 0.10353
-0.648152 0.00598896 0.103103
-0.402561 0.00598896 -0.0791769
0.328597 -0.00784336 -0.0991938
0.268819 -0.00275564 0.321741
0.179521 0.0196021 0.291089
0.14192 0.0196021 0.0929414
-0.993508 -0.0222735 -0.0459615
-0.0895605 -0.00517805 -0.208336
0.149313 -0.0223873 0.132168
-0.798364 0.00598896 0.0343367
-0.862936 0.00598896 0.0480618
-0.135181 0.0196021 0.134139
-0.94564 0.00598896 -0.0752468
-0.709447 0.00598896 -0.0738899
0.0506205 -0.0223873 -0.141127
-0.923328 0.00598896 -0.00902661
0.0273491 -0.0223873 0.148267
-0.503744 0.00598896 0.0287148
0.154331 0.0196021 -0.119204
0.102371 -0.0223873 0.123433
-0.187398 0.0101259 -0.0404734
0.500707 0.0134203 0.251476
0.443965 0.00420417 0.159271
0.022583 0.0196021 -0.0419441
0.168333 0.0196021 -0.25641
0.213568 0.00246683 0.201291
0.198254 -0.000507813 -0.192157
-0.139875 0.0196021 -0.0686257
-0.502356 0.00598896 0.0917744
0.462535 0.0196021 -0.277878
-0.0233707 -0.0223873 -0.103075
-0.101681 0.0196021 -0.10365
-0.338324 0.00598896 -0.0729525
0.0750724 0.0196021 0.188376
0.390488 -0.0223873 0.374169
0.443271 -0.0100428 -0.194782
-0.323675 0.00598896 0.0519702
-0.885632 -0.0203938 0.0927479
0.351468 -0.00953137 -0.327073
0.10865 -0.0219224 0.279831
0.334002 -0.0223873 0.373381
0.101642 0.0196021 0.168829
0.284848 -0.0223873 -0.0689787
0.0607144 0.0196021 -0.0861253
0.356843 -0.0223873 -0.073518
0.472725 -0.0223873 -0.217215
0.177025 -0.0138591 -0.320448
0.376574 0.0196021 -0.0541188
0.196983 0.0196021 0.0594357
0.107308 -0.0223873 0.207169
-0.189438 0.0196021 -0.155091
-0.375407 0.00598896 -0.0205627
0.416928 0.00576693 0.124201
0.424213 -0.000281987 -0.306373
-0.0338043 0.0196021 -0.0602701
-0.902283 0.00598896 0.0785863
0.224984 -0.0223873 0.327757
0.449644 -0.0106434 -0.088043
-0.969673 0.00598896 0.0598589
0.214883 0.00593487 -0.22865
-0.216854 -0.0223873 -0.148116
0.174007 0.0196021 0.145893
-0.0956237 -0.00236376 -0.0404734
-0.899237 0.00598896 -0.0744327
-0.805836 0.00598896 -0.0307923
0.241789 -0.00954939 -0.289178
-0.697086 0.00598896 0.0653205
0.48165 0.0128596 -0.129206
-0.514875 -0.0222469 -0.0972117
0.238545 0.0196021 0.0766582
-0.316617 -0.0208208 0.10353
-0.703174 0.00598896 -0.0324575
0.440754 -0.000612186 0.200275
-0.681333 0.00598896 -0.00205921
0.225578 -0.0223873 -0.317933
0.155909 0.00680971 -0.309629
0.419725 -0.0223873 0.110143
-0.112561 0.0196021 0.0779648
0.156033 0.0196021 0.029825
-0.898158 -0.0193434 -0.0972117
-0.773502 -0.0214489 -0.0972117
-0.427683 -0.0222687 -0.0972117
0.0806307 0.0196021 0.108214
0.389939 -0.0223873 -0.0836061
0.0698433 -0.0223873 -0.0661739
0.131609 -0.0223873 -0.262694
0.12557 0.0196021 -0.016791
0.0187079 -0.0223873 -0.223393
0.0674683 -0.0223873 -0.195825
0.291342 0.0145675 0.112625
0.39848 -0.00193298 0.334782
-0.180006 -0.0223873 -0.140356
0.0198522 0.00790184 -0.253738
0.112607 0.0196021 -0.172573
0.273567 -0.0212288 0.0477259
-0.240619 0.0196021 0.119366
0.419769 -0.0187191 0.152263
0.387932 0.00845596 -0.333423
0.195875 -0.0223873 -0.244664
-0.137352 -0.0223873 -0.114241
0.443491 -0.00275089 -0.281248
0.400836 -0.000570437 -0.102044
0.302418 -0.00679773 0.335327
0.28726 0.00862771 -0.106755
0.223695 0.0224173 0.168127
-0.642268 0.00598896 0.0578891
-0.350754 -0.0210181 -0.0972117
0.420611 0.0187443 0.291244
-0.680348 0.00598896 0.102491
0.114599 -0.0223873 -0.0880439
0.331277 0.0196021 -0.36421
-0.0230415 -0.0223873 0.115553
-0.299375 0.00598896 -0.0898961
0.202657 0.0196021 -0.155409
0.190029 0.0114078 -0.0122565
0.495643 -0.0123703 -0.162325
-0.247755 0.010792 -0.0895535
0.44342 0.0119079 -0.229817
-0.0498967 0.0196021 0.0722347
0.130802 -0.0223873 0.0162479
0.427686 -0.0223873 0.326592
0.426662 0.0224743 -0.288478
0.108296 0.0196021 -0.273876
-0.806613 -0.0208663 0.102664
0.440376 -0.00205918 0.247573
0.46611 0.00610187 0.329732
0.21518 0.00461028 -0.281392
0.227017 -0.0104869 0.278979
0.200569 0.0023653 0.261243
-0.645008 0.00598896 -0.0718935
0.201116 -0.00200889 0.342368
0.462741 -0.0223873 0.172129
-0.755393 0.00598896 -0.0186574
-0.0570055 0.0196021 0.162546
-0.00376086 -0.0223873 0.175638
0.442702 -0.0223873 -0.306087
-0.403786 0.00598896 0.0820098
0.353793 -0.000995521 0.334773
0.381153 0.0196021 0.362252
0.406933 -0.00110369 0.066812
0.205454 -0.0131322 -0.0404734
0.502853 -0.00110369 -0.190079
0.00627986 0.0196021 0.105957
-0.298582 0.00598896 0.0960622
0.0204367 0.0196021 -0.226125
-0.898416 0.00598896 -0.0230392
0.430179 -0.00346253 0.275707
-0.53101 0.00598896 -0.0748596
0.437932 -0.0223873 0.297769
0.147131 0.0196021 -0.1624
0.176159 -0.0223873 -0.28762
-0.743582 0.00598896 0.0619131
0.12177 -0.0223873 -0.203105
0.161187 -0.0223873 0.0521106
-0.360184 0.00598896 -0.0535068
0.194236 -0.0223873 0.274164
0.229943 0.000755105 0.312131
-0.140056 -0.0223873 0.115626
-0.760408 0.00598896 -0.066691
0.239609 0.0196021 0.106336
-0.820642 0.00598896 -0.0883637
0.439926 -0.0114737 -0.141012
0.189501 0.0196021 0.202404
-0.241352 -0.00840603 0.0752653
-0.152753 0.0196021 -0.133796
0.194841 -0.00251653 0.228194
0.437051 0.0103688 -0.173952
-0.745145 -0.0216842 -0.0972117
-0.433208 0.00582955 0.10353
0.321401 -0.00569137 0.107011
0.168131 -0.0223873 0.103423
0.475173 0.0145893 -0.310376
-0.219576 0.0196021 0.138296
0.259076 0.00593772 -0.30551
-0.203925 0.0196021 0.0843411
-0.00441177 0.0196021 -0.212829
-0.661506 -0.0215874 0.10353
-0.499528 0.00598896 -0.0604163
-0.0856911 -0.00847245 0.0477259
-0.788022 0.00598896 0.0857719
0.308255 -0.0223873 0.0839283
0.294674 -0.0135146 -0.0404734
-0.526675 0.00598896 0.0473018
-0.155311 0.00179125 0.180422
0.471519 -0.00458312 0.122496
-0.470941 -0.0218484 0.10353
-0.34283 0.00538833 0.10353
0.100036 -0.00184 0.0477259
0.20581 0.0196021 -0.0644081
0.0978504 0.0196021 -0.201179
0.131012 0.0196021 0.206028
-0.223783 -0.00141491 0.165067
0.106452 0.0196021 -0.082719
0.277667 -0.00665446 0.0988765
0.276146 0.011071 -0.3804
0.0497485 -0.0223873 0.191643
0.0685566 -0.0223873 -0.165124
0.13051 0.0196021 0.271169
-0.075416 -0.0223873 -0.145676
0.330961 0.0196021 0.0734293
-0.611649 0.00598896 -0.0697918
-0.931479 0.00598896 0.0176598
0.469491 -0.0116397 -0.109462
-0.108186 0.0196021 -0.13395
0.190029 -0.0119965 0.022664
0.183318 0.0196021 0.241605
-0.839747 0.00598896 0.062546
0.00966441 -0.0223873 0.202527
-0.364434 0.00598896 0.030974
0.416655 -0.00778548 -0.364729
-0.247755 0.0065317 -0.149467
0.502288 0.00869223 -0.23932
-0.186809 -0.0223873 0.142727
0.0393359 -0.00802839 0.244366
-0.166434 0.00549366 0.0477259
0.146183 0.0196021 0.145861
0.419049 0.0196021 -0.326661
0.067399 0.0196021 -0.212283
0.0122699 -0.0223873 -0.0975381
-0.0159023 0.0196021 -0.117212
0.501543 -0.00565911 0.232406
0.124664 0.0196021 0.0698987
0.469215 0.0196021 0.20896
0.435296 -0.020539 -0.259066
0.0207242 0.00957655 0.235798
0.0076462 -0.0223873 0.077627
0.294405 -0.00356216 0.0477259
0.233108 -0.00172708 0.368951
0.0692901 -0.0223873 -0.245914
0.215348 0.0196021 -0.322333
0.0868931 -0.0223873 0.155941
0.270172 -0.0102326 0.387194
0.457616 -0.00351282 -0.24685
0.011231 0.0196021 0.202695
-0.475898 0.00598896 0.0762056
0.390281 0.000246522 0.105553
0.254211 0.0196021 -0.0717759
-0.00579614 -0.02217 0.224231
0.197825 -0.0223873 0.16546
0.153595 0.000230392 0.310191
-0.213733 0.0196021 -0.115509
-0.999196 -0.0216586 -0.0199925
0.387675 -0.021986 0.321064
0.445836 0.0196021 0.137695
-0.241352 0.0179482 0.159093
0.32114 -0.0220486 0.396613
-0.148998 -0.0223873 0.152666
0.193199 0.0196021 0.11144
-0.0770964 -0.0223873 0.111436
0.159917 0.0196021 -0.0916287
0.495053 0.0196021 -0.262355
0.0754007 0.0196021 0.157147
0.307756 -0.0223873 -0.364327
0.214854 -0.0223873 0.110919
0.170145 0.0196021 0.184458
-0.165552 0.0196021 -0.102693
0.0723606 0.0196021 0.217099
-0.139489 -0.012841 -0.0404734
-0.280718 0.00598896 -0.05276
-0.681805 0.00598896 -0.0517893
0.305292 -0.00537446 -0.326202
0.434055 0.000565336 0.361549
0.240663 0.00983274 -0.114807
0.0706346 -0.0223873 -0.122372
-0.597026 0.00598896 0.0455863
-0.321515 0.00540636 -0.00578534
-0.171532 -0.0116653 -0.175776
0.399266 -0.0122669 -0.305596
0.0444293 -0.0160243 0.0477259
0.025105 -0.0223873 -0.19814
0.364839 -0.0174448 -0.385145
-0.0412167 -0.0223873 -0.193944
-0.20284 0.0196021 -0.0671076
-0.0587419 0.00683723 0.205885
0.152176 -0.00502433 0.00362629
0.336594 -0.00474442 -0.0394733
0.229361 -0.0223873 -0.0990458
0.219621 -0.000959465 -0.138145
0.499941 -0.00909679 0.194467
0.0956111 -0.0223873 -0.25726
-0.0470511 -0.0163716 0.209936
-0.718805 0.00598896 0.0514378
-0.679492 -0.00895067 -0.0972117
0.314437 -0.0205257 -0.0818394
-0.676045 0.00598896 0.043644
-0.0623732 0.00211196 -0.219867
0.195334 -0.0223873 -0.270543
0.153332 0.0196021 -0.279144
0.185352 -0.0223873 -0.0737277
0.440562 0.00624704 0.0884676
0.242203 -0.0134378 -0.139024
0.324391 -0.00380886 0.354969
0.175659 -0.0223873 -0.186403
0.200716 0.0224743 -0.202984
-0.134953 0.0196021 0.159646
0.243267 -0.0223873 -0.062276
0.0105848 -0.0169817 -0.24993
0.460332 -0.0223873 -0.161454
0.311359 0.0224743 -0.0961347
0.178465 -0.0223873 0.298141
0.233031 0.0223557 -0.276528
0.0254722 -0.0223873 -0.144448
0.081665 0.0139545 -0.0404734
-0.803413 -0.0220078 -0.0972117
-0.557371 0.00598896 -0.0362576
-0.0353794 0.0196021 -0.160975
-0.642354 0.00598896 -0.0256789
0.232815 -0.00149746 0.156491
-0.178243 0.0114486 0.176059
-0.413565 0.00598896 -0.0510758
0.132099 -0.00792591 -0.299848
0.482267 0.000560591 0.303497
-0.97933 0.00598896 -0.00138742
0.364742 -0.00025447 0.0953525
-0.461707 0.00379617 -0.0972117
-0.45094 0.0213262 0.0169529
-0.105545 0.0079284 0.189796
-0.84831 0.000311993 -0.0972117
-0.241352 0.00459699 0.0989126
0.0294916 0.0196021 -0.136171
0.26338 0.0171607 0.126146
-0.24062 -0.0223873 0.156338
0.198147 -0.0223873 -0.127348
-0.228764 -0.0223873 0.129426
0.261425 0.000620369 0.0477259
0.0845476 -0.0223873 0.221659
0.119258 -0.00452619 -0.0168205
-0.103703 0.00988398 0.0477259
0.458762 0.0154215 -0.330553
0.149698 0.0196021 0.240193
0.332708 0.00592443 -0.388142
-0.768596 0.00598896 0.0279149
-0.0443023 -0.00519228 -0.0404734
-0.656515 0.00598896 -0.00348153
0.418192 -0.0223873 -0.105874
-0.247755 -0.0223598 -0.0571133
-0.406959 0.00598896 0.0180659
0.054415 -0.00817926 -0.267935
0.299593 0.0130807 -0.343093
0.417577 0.00164133 -0.0636718
0.105203 -0.0168328 -0.0404734
0.306182 -0.0035299 -0.38754
0.243851 -0.0223873 0.350933
-0.617252 -0.00227552 0.10353
0.354672 -0.0223873 0.359919
0.466589 0.0196021 -0.177282
0.461915 -0.000274396 -0.218175
-0.049688 0.0196021 0.13636
-0.870193 0.00598896 0.0181181
-0.313779 0.00598896 0.0195404
-0.421634 0.00598896 0.0489006
0.225699 -0.0101699 -0.35579
0.117496 0.0196021 -0.229153
-0.0501169 0.0196021 -0.183709
0.279316 -0.00102494 -0.317396
-0.113906 -0.0223873 0.0718343
0.270323 -0.0223873 -0.358086
0.343398 -0.00221195 0.397245
0.412519 -0.0103891 0.374616
0.0712257 -0.0223873 0.0805495
0.174924 -0.0223873 0.230885
0.363596 0.0196021 -0.364435
0.198956 0.0196021 -0.298561
0.125728 0.0196021 -0.0547469
0.130063 0.0196021 -0.120558
0.0483528 0.0196021 -0.178778
-0.241624 0.0186096 -0.0404734
0.384651 -0.0223873 -0.353408
0.219477 0.00664176 -0.0404734
0.261535 -0.00760046 -0.375382
0.319697 0.0127116 0.337624
-0.600559 0.00598896 -0.00910916
-0.998393 -0.020409 0.0332465
0.139079 -0.0223873 0.0782874
0.181874 0.0196021 -0.114635
-0.140844 0.0196021 -0.176623
0.139002 -0.0223873 0.161751
0.335084 -0.00230114 0.0484509
-0.301301 -0.0210713 -0.0972117
0.238789 0.000732333 0.124102
0.168466 -0.0223873 -0.0180578
-0.203242 0.00345268 -0.166397
-0.275435 0.00598896 -0.09229
0.464383 -0.0223873 0.235636
-0.168606 -0.0223873 -0.11917
-0.00382728 0.0196021 0.154658
0.196953 -0.0088814 -0.222553
0.178459 0.0196021 0.0389795
0.00359462 0.0196021 -0.178766
-0.0866836 -0.0223873 -0.0547127
-0.848989 0.00410075 0.0982028
-0.0964236 -0.0223873 -0.182587
0.281021 0.0196021 0.0747871
-0.00418879 0.0196021 -0.0962733
-0.466888 0.00598896 -0.0465071
0.0260823 -0.00489719 -0.0404734
0.431296 -0.00117011 0.306706
0.44412 0.0196021 -0.127693
-0.5725 0.00598896 -0.0102297
0.459979 0.00483516 0.226345
-0.359019 0.00598896 0.000725662
0.30559 0.00693591 0.396172
0.126091 -0.0223873 0.236813
-0.943222 0.00598896 -0.0298197
0.317594 0.0196021 -0.07194
0.458696 -0.0223873 0.195534
-0.260448 0.00598896 0.0693474
-0.352677 0.00598896 0.080985
0.0572625 -0.0223873 -0.0986615
-0.23683 0.0196021 -0.069659
0.39714 -0.0223873 0.102167
0.0201805 -0.0223873 -0.057435
-0.241338 0.0172622 0.0477259
-0.750518 0.00598896 0.00814851
-0.0892303 0.0196021 -0.0509572
-0.49488 0.0213262 -0.0128581
0.207907 0.00144587 0.164122
0.0416738 -0.0223873 0.127284
-0.556101 0.00598896 -0.0861443
0.28137 -0.0223873 0.370348
0.122147 0.0196021 0.157187
-0.204158 -0.0223873 -0.0618225
-0.0641001 0.01363 0.0477259
-0.608719 0.00598896 -0.033617
-0.921489 0.00598896 0.056537
0.165445 0.0196021 -0.0237945
0.0860847 -0.00300898 -0.280946
-0.969629 -0.0222127 -0.0776445
0.113682 0.0196021 0.2232
0.0481127 0.0196021 0.139293
0.278188 -0.0139929 -0.0909398
0.0386005 -0.0223873 0.212885
0.101118 0.0196021 0.061378
0.0919922 -0.0223873 0.263367
-0.0331363 -0.00523782 -0.231969
0.177171 -0.00356216 0.00362629
0.351842 0.0196021 -0.0707293
0.0232861 0.0196021 0.159985
0.385244 -0.0207515 -0.113797
-0.286195 -0.00148228 0.044683
-0.545064 0.00179599 0.10353
0.478061 0.0196021 0.168007
-0.188855 0.0196021 0.109873
0.233242 0.0116412 0.290505
0.43507 0.0126262 0.179009
-0.299271 -0.0209773 -0.0262188
0.127042 -0.0110438 0.292255
0.456376 -0.00394359 -0.176633
0.0465594 0.0196021 -0.111845
0.300246 -0.00237325 -0.0843529
-0.866291 0.00598896 -0.0252292
-0.735154 0.00598896 -0.0729079
-0.0882606 0.0196021 0.109888
0.239417 -0.0223873 0.0715155
0.319438 0.0196021 0.37546
0.341393 0.0094551 -0.34616
0.0925321 -0.0223873 -0.0623111
0.418093 0.0196021 -0.0889928
0.066842 0.0196021 0.252879
-0.0832203 0.0196021 0.15768
0.217844 -0.0201983 -0.186499
-0.0472523 -0.0223873 0.10836
-0.655697 0.00598896 -0.0482349
-0.015685 0.0196021 0.123541
0.0928225 -0.0223873 -0.20879
-0.938611 -0.0221387 0.0814661
0.119142 0.0196021 0.103232
-0.428406 0.00598896 -0.072999
0.225166 0.0224743 -0.158448
0.468802 0.0196021 0.278935
0.249981 -0.0124946 0.330347
0.484097 -0.000771593 0.145786
0.24021 -0.00512396 -0.312105
-0.483534 0.00598896 0.0393561
-0.531028 0.00598896 0.00527729
0.152862 -0.0223873 0.272719
-0.163488 0.0196021 0.0864314
0.16824 0.0196021 -0.20755
-0.789466 0.00598896 -0.0662431
0.203751 0.000206671 -0.256726
-0.163957 -0.0124823 -0.0404734
0.461261 0.0224743 -0.216743
-0.521893 0.00577831 0.10353
-0.572143 -0.0217459 0.10353
0.503655 0.0174805 -0.218332
-0.595073 0.00598896 0.103413
0.349529 0.00987544 -0.100845
-0.0938768 -0.0223873 0.138499
0.119258 -0.00519797 0.0360153
0.191605 0.0196021 -0.267931
-0.0491415 0.0196021 -0.10726
0.146822 -0.0223873 -0.159287
-0.206041 -0.00573597 -0.0404734
0.0565594 -0.00294635 -0.0404734
-0.650553 0.000227545 -0.0972117
0.0833947 0.0196021 0.0757701
-0.247755 -0.0113247 -0.0781417
-0.696328 0.00598896 -0.0923877
-0.57707 0.00598896 0.0348947
0.194947 0.0196021 -0.178008
-0.928319 -0.0204004 -0.0972117
0.217614 0.0196021 0.111626
-0.219172 -0.011598 0.0477259
-0.247755 -0.00360865 -0.0410702
-0.799144 0.00598896 -0.000732719
0.367263 -0.00198612 0.392137
-0.162551 -0.0223873 0.0613362
0.0890005 0.0196021 -0.253338
-0.123973 -0.0223873 -0.1378
0.178621 -0.0223873 0.177259
-0.122514 -0.0223873 0.101478
0.056195 0.0196021 -0.0640504
0.216535 -0.0169618 -0.2375
0.33475 -0.0223873 0.0697943
-0.37396 -0.0211567 0.10353
-0.121203 -0.0223873 0.165108
0.360986 0.0223433 0.112188
-0.225481 -0.0223873 -0.102033
0.102834 -0.0223873 0.171799
-0.526765 0.00542724 -0.0972117
-0.449372 -0.0163944 -0.0972117
0.370951 0.00404002 0.348378
-0.558733 0.00598896 0.00921122
0.358939 -0.0223873 0.0745822
0.420878 -0.0223873 -0.311318
0.437486 0.0196021 0.321374
0.434368 -0.0223873 0.135648
-0.209916 0.0196021 -0.137595
-0.204824 -0.0119728 0.170662
-0.0565956 0.0196021 0.113053
0.251457 -0.0223873 -0.329709
-0.0111363 0.0196021 0.201541
0.405876 0.0196021 0.106506
0.350092 0.0196021 0.085047
-0.0852082 -0.00655388 0.196714
0.395345 0.0196021 0.339982
-0.105082 -0.0223873 -0.0976595
0.213106 0.00378573 0.239586
-0.787048 -0.00820677 0.10353
0.198611 -0.0223873 0.333532
0.164431 -0.0223873 -0.232319
0.0439824 0.0196021 -0.208978
0.126962 -0.0223873 0.123049
-0.122559 -0.00848763 0.186592
-0.135429 -0.0223873 -0.164268
0.0704638 -0.0223873 0.203262
0.190029 -0.00644856 0.0475371
-0.778764 0.00598896 -0.0234681
0.368997 -0.000931948 -0.340364
0.414339 -0.00188175 -0.1365
0.146619 0.0196021 -0.186255
-0.0219218 -0.0223873 -0.145273
0.319614 0.0099096 -0.0399562
-0.398077 0.00598896 -0.0304934
-0.320675 -0.0197286 0.0111611
0.272591 0.0126565 -0.333938
0.388341 0.0196021 0.0624919
-0.0344893 -0.0223873 0.0657873
0.0718235 -0.0223873 0.243933
-0.148109 0.0196021 0.069874
-0.101878 0.0196021 0.130369
0.49361 -0.00591056 0.275245
-0.050819 0.0196021 -0.074501
0.414159 0.0118177 0.37373
0.130144 -0.0223873 -0.173814
-0.984376 -0.0214015 0.0682021
0.139889 -0.0223873 -0.132713
0.229185 0.0196021 0.323509
-0.118939 0.0196021 -0.0808194
0.215243 -0.00262185 0.0477259
0.388104 -0.0221397 0.0587895
0.101399 -0.0223873 -0.159278
-0.940447 -0.000260163 -0.0961167
0.204906 0.000181052 -0.165391
-0.160411 0.0196021 -0.0602663
0.474024 -0.00750083 -0.312504
0.442147 0.0224173 0.288848
-0.390461 0.0029422 -0.0972117
-0.553955 0.00598896 0.0553955
-0.154653 0.0196021 -0.155589
0.196568 -0.0223873 -0.192827
0.138406 0.0143958 0.00362629
-0.901662 0.00598896 -0.0495909
0.343534 0.0196021 0.377968
0.503014 -0.0221985 -0.195735
0.112734 -0.0223873 -0.243704
0.384893 0.000350896 -0.0481249
-0.722239 0.00598896 0.0202046
-0.702108 0.00598896 0.0933096
0.257674 0.0196021 0.0576993
-0.025926 0.0196021 -0.209516
0.474094 -0.0223873 -0.238901
0.212089 -0.0156628 0.226937
0.137741 -0.0223873 -0.0723016
0.275675 -0.00212655 0.345297
-0.0920342 -0.0223873 0.0631182
0.200369 0.0196021 0.340594
-0.77194 0.00598896 -0.0957543
0.39085 0.0196021 -0.353474
-0.051413 -0.0223873 -0.153171
0.190029 -0.00879316 -0.0213151
-0.120461 0.0196021 -0.114448
-0.434536 0.0204219 0.00286721
0.360562 -0.0218266 0.333163
0.0628464 0.0196021 -0.247875
0.150779 -0.0223873 -0.211354
0.305908 0.00734012 0.354326
0.381509 0.0202653 -0.316531
-0.89332 0.00457897 -0.0972117
-0.147616 -0.0223873 -0.0794208
0.281042 0.00885068 0.39044
-0.0336676 -0.0223873 -0.0727987
-0.575952 -0.0160367 -0.0972117
0.0712988 0.0196021 0.127571
-0.371928 -0.0125383 -0.0972117
0.402664 0.00368705 0.310143
-0.874623 0.00598896 -0.0678382
0.0223828 0.0196021 -0.168431
-0.128943 -0.000694736 0.0477259
-0.378153 0.00598896 0.0615431
0.196832 -0.0196774 0.245519
-0.966289 0.00246873 -0.0797586
-0.0926813 0.0196021 -0.188306
0.0423798 -0.0223873 0.105886
0.474817 -0.0223873 0.272785
0.336921 0.00201043 -0.0812008
-0.0492031 -0.0223873 -0.109014
0.35074 0.0224173 0.335548
0.221914 0.00964677 0.141377
-0.377632 0.00598896 -0.0688885
0.482704 -0.0218968 0.143205
0.214879 0.0224173 0.193873
0.347591 -0.0223873 -0.0442175
0.399963 0.00608005 -0.122918
-0.920276 0.00598896 -0.0710234
-0.90742 0.00598896 0.0246338
-0.996286 0.00598896 0.0346973
0.147756 0.0196021 -0.0723556
-0.255659 -0.0176753 -0.0972117
-0.314745 0.00598896 -0.0420058
0.474645 0.0196021 0.31569
0.0813993 -0.0223873 0.126881
-0.460625 0.00701371 0.029323
0.00823544 -0.0223873 0.157558
-0.128984 -0.00180584 -0.191616
-0.0348907 -0.0223873 0.139482
-0.0961977 0.0196021 0.174587
-0.0811556 -0.0223873 -0.199158
0.201064 0.0224173 0.25427
0.276931 0.0196021 -0.0558912
0.24991 -0.020705 0.113867
-0.635541 0.00598896 0.0780236
0.478277 -0.0223873 0.187369
0.501756 0.0196021 -0.185654
-0.197019 0.0196021 -0.10247
-0.00618896 -0.0223873 -0.116304
0.0883885 -0.0223873 0.0581453
0.420757 -0.0206746 -0.143736
-0.594497 0.00598896 -0.0574511
-0.734195 0.00598896 -0.022597
-0.0714337 -0.0223873 -0.0697235
-0.161538 -0.0223873 0.0969285
-0.735874 -0.00210947 0.10353
0.145819 -0.0223873 -0.0415484
0.111681 0.00514448 -0.29146
-0.11458 0.0196021 -0.175084
0.122688 0.0196021 0.17825
-0.321065 -0.000227902 0.10353
0.276448 0.0163077 0.32644
0.276367 -0.0164314 -0.111778
-0.0156651 0.0196021 0.0556204
0.19924 -0.0070283 0.189141
-0.752042 0.00598896 -0.0412571
0.156527 -0.0223873 0.242282
0.0464703 -0.0223873 -0.194434
0.162371 -0.0223873 -0.1001
-0.0243376 -0.0223873 0.171317
-0.610167 0.00598896 0.0149736
0.398672 -0.0223873 0.351252
-0.539288 0.00598896 -0.0492379
0.160854 0.0196021 0.313849
0.173903 -0.0223873 0.134108
0.109476 0.0196021 -0.248531
-0.318266 0.00598896 -0.0807975
0.330487 -0.0200124 -0.328712
0.337381 -0.0189477 -0.0811875
0.452257 0.00646433 0.267921
-0.85961 -0.0190483 -0.0972117
-0.224375 -0.0069894 -0.160147
-0.140147 0.0196021 0.1138
0.43598 -0.0222393 0.262296
-0.247755 -0.000290526 -0.129098
0.399432 0.00168972 -0.374815
0.172361 0.0196021 0.0608969
0.337357 -0.0223873 -0.359319
0.0679683 0.00012507 0.0477259
0.429801 -0.00160563 -0.158424
0.393604 -0.0113541 -0.32993
0.381001 0.00342706 0.324668
0.46139 -0.0214034 -0.199696
0.452637 0.0224173 0.241257
0.0310239 0.0196021 0.116336
0.492015 -0.0223873 -0.273513
0.243997 0.0196021 0.368207
0.214144 0.00330656 0.291351
0.208102 -0.0223873 0.147329
0.0425022 0.0196021 0.0944188
-0.395973 0.00598896 -0.00516479
0.371087 0.00107677 -0.106151
0.126907 -0.0223873 -0.00413434
0.49024 -0.0037728 -0.144233
-0.943512 0.00598896 -0.0508158
-0.224139 0.0196021 0.0943552
0.0241296 -0.0223873 0.090222
0.309548 0.0224173 0.10407
-0.49332 -0.014435 0.10353
0.214414 -0.0201281 0.198462
0.174966 0.0196021 -0.311138
0.264652 0.0224743 -0.316635
0.0567842 0.0196021 0.0588028
-0.34324 0.00598896 0.0414996
-0.51606 0.00598896 0.0752929
0.440111 0.0202283 0.197565
0.454921 -0.00337144 0.185475
0.348868 -0.00103158 0.108569
-0.185147 0.0196021 0.158367
0.0293881 -0.0223873 0.066645
0.0372266 0.0196021 0.225849
0.40636 -0.0223873 0.0736969
-0.640361 0.00598896 0.0093488
-0.0483919 -0.00675978 0.0477259
-0.849085 0.00598896 0.0149005
0.501966 -0.0202315 0.217523
0.335381 0.00615406 0.0901945
0.0871265 0.0196021 -0.0897822
0.260142 -0.00392652 -0.327214
0.502129 0.00176753 0.211762
0.261218 -0.0223873 0.0640661
-0.564051 0.00598896 0.0773595
0.117391 -0.0223873 0.0906946
0.457315 0.0196021 0.157031
0.46336 0.0130436 0.112599
0.434594 -0.00358967 -0.0738245
0.0896106 -0.0223873 -0.114594
-0.389403 0.00598896 0.0285677
-0.43565 0.0126774 -0.0189563
0.092794 0.0196021 0.217208
0.373594 -0.00134944 -0.320466
0.375468 -0.0223873 -0.0593659
0.456863 0.0166104 -0.250019
-0.0163587 -0.0223873 -0.175529
-0.0137997 0.0196021 0.102587
-0.078682 0.0196021 -0.108606
-0.0758307 0.0196021 -0.173567
0.225512 -0.00133616 -0.298169
0.203493 -0.0223873 -0.321823
-0.504664 0.00598896 -0.0220486
0.248321 -0.0220353 0.138766
-0.230141 0.0196021 -0.135881
-0.0930134 0.0196021 0.0833752
-0.0497734 -0.0223873 -0.0566939
0.259572 0.0197103 -0.122121
0.254151 0.00717407 0.332915
-0.0139714 0.0196021 0.18149
-0.0342388 -0.0223873 -0.221263
0.426534 -0.0116217 -0.123602
0.4612 0.00695963 -0.192988
-0.836177 0.00598896 -0.0568031
-0.472379 0.0213262 -0.0107981
0.484678 -0.0223873 0.229266
0.00164758 -0.0223873 0.132817
-0.421949 -0.012821 0.10353
0.355601 0.0196021 0.36176
0.0586819 -0.0223873 0.0642824
0.0527801 -0.0223181 0.250555
0.292109 -0.0223873 0.055535
0.407442 -0.00375762 0.139215
-0.456376 0.0213262 -0.0387455
0.0173966 0.0196021 -0.0906646
0.164183 0.0196021 0.0984495
0.160914 -0.0223873 0.0778804
0.192458 0.0196021 0.153905
0.159024 -0.0223873 0.171194
0.172699 0.0196021 -0.16054
-0.447477 0.00598896 0.0893671
-0.338915 0.00598896 -0.0942987
-0.755848 0.00598896 0.0451252
-0.207893 -0.0223873 0.129703
0.219283 -0.00111602 -0.180444
0.388586 0.0156169 -0.0954288
-0.247755 0.000124121 -0.107159
0.0500152 -0.0223873 0.171623
-0.00390508 -0.0223873 0.0515128
0.188266 -0.0223873 0.0950887
0.460341 -0.0139596 0.213598
0.158174 -0.0223873 0.311483
-0.826482 -0.0207952 0.100573
0.244845 0.00541585 -0.0404734
0.134203 0.0196021 0.0279614
-0.484513 0.00525075 -0.0972117
-0.00518318 -0.000159585 -0.243453
0.0650108 0.0196021 -0.141255
0.00834551 0.0196021 -0.0558789
0.381663 -0.00556613 -0.38012
-0.164229 -0.0159162 0.178743
-0.413455 0.00598896 0.101173
0.166606 -0.0223873 -0.122052
-0.0660215 0.000808241 -0.0404734
0.0485416 -0.0223873 -0.238157
-0.168635 -0.0223873 -0.0768484
-0.50061 0.0202511 0.0152506
0.157668 -0.0223873 -0.271375
0.241782 0.0196021 0.346829
0.262803 -0.021298 0.318036
0.444781 -0.0223873 -0.283691
-0.856616 0.00598896 -0.052019
0.134308 -0.0223873 -0.282299
0.14993 -0.0223873 -0.00557185
-0.700667 0.00598896 0.00701274
0.185297 -0.00752076 0.331605
-0.0347835 0.0196021 0.0904963
0.427185 0.00897973 -0.274084
0.137333 0.0196021 0.224839
-0.0567085 0.0196021 0.182743
-0.729629 -0.00953232 -0.0972117
0.453896 0.00876434 -0.0920594
0.214652 0.0196021 0.0681262
0.126954 -0.0223873 0.208395
0.34525 0.0180128 -0.328292
0.13389 -0.0223873 -0.0919456
0.110389 0.0196021 0.256844
-0.241352 -0.000973698 0.122044
-0.0770689 0.0196021 -0.0733311
0.309236 0.0196021 -0.358941
-0.0260332 0.0196021 -0.234806
-0.959535 0.00208065 0.0770103
0.200107 0.0068192 -0.335951
-0.633178 -0.0221605 -0.0972117
-0.710891 -0.0136361 0.10353
-0.198838 0.0196021 0.0578245
-0.0231791 -0.0112554 0.218208
0.19161 -0.0223873 -0.0551359
0.307968 -0.00408782 0.0909868
0.11747 0.018825 0.285789
-0.360095 0.00598896 -0.0328019
-0.592308 0.00598896 0.0700135
0.405134 0.0224173 0.136445
-0.131126 -0.0223873 -0.0640371
-0.231047 -0.0223873 0.088813
0.445135 -0.0221188 0.161437
0.450311 -0.00594946 -0.157875
0.184811 0.0196021 0.272243
0.176 -0.0223873 0.210186
-0.999196 -0.0026209 -0.00929703
0.492084 0.0196021 0.268651
0.213543 -0.0196897 -0.278734
-0.0619168 -0.0223873 -0.195686
0.102529 0.0196021 0.120647
0.275564 0.0196021 0.363288
0.19518 0.0196021 -0.247153
-0.717708 0.00598896 -0.0915784
-0.0986353 -0.0223873 -0.141929
-0.95773 0.00598896 0.0213347
0.0212109 -0.0223873 0.129675
-0.197084 -0.0223873 0.0892722
0.206944 0.0224743 -0.221432
-0.452222 0.00598896 0.0689545
0.21164 0.0196021 -0.0965456
0.215474 0.00925205 -0.196468
-0.189971 -0.0223873 0.06761
0.200001 0.0196021 0.293952
0.398785 0.0224743 -0.325168
-0.133634 0.0196021 -0.130305
0.232198 -0.0223873 0.10216
0.338672 -0.0223873 -0.0614742
0.410738 -0.0171525 -0.0599779
-0.184748 -0.0223873 -0.0616507
-0.412915 0.00598896 -0.0955863
0.370509 -0.0223873 -0.340155
0.0863874 0.0196021 0.257459
0.223831 -0.0221074 -0.295439
0.217469 0.0128055 0.257939
-0.241352 -0.00321962 0.0494225
0.235814 0.000679197 0.0477259
-0.131521 -0.0223873 0.0607603
-0.00724029 -0.0223873 -0.222174
0.47471 0.0196021 -0.150561
0.273 0.0196021 -0.0799635
0.210103 -0.0223873 -0.100925
-0.168293 -0.0223873 0.151262
0.399971 0.0196021 0.0847662
-0.107797 0.0037288 -0.200601
-0.170643 0.0196021 -0.144768
0.285595 0.0035229 -0.0404734
0.36653 -0.0120676 -0.0866415
0.146625 -0.0223873 0.0394444
0.437353 -0.0134027 -0.351982
0.0841092 -0.0223873 0.101012
0.216988 -0.0223873 -0.142417
-0.760962 0.00598896 0.0702383
0.11269 -0.0223873 0.0687088
0.430732 -0.00453663 0.170976
-0.753724 -0.00934634 0.10353
0.151979 0.0196021 -0.138321
0.148618 -0.0223873 -0.24331
-0.0172032 0.0196021 -0.140573
-0.617048 0.00598896 0.0625356
0.398662 0.0161274 -0.0534555
0.0658429 -0.0223873 -0.225432
-0.136426 0.0196021 -0.0470802
-0.232336 0.0196021 -0.100149
0.451143 0.00853187 -0.267077
-0.30452 0.00598896 0.0506067
0.309792 -0.0223873 -0.387757
-0.274327 0.00598896 -0.0731233
-0.96462 0.00598896 -0.0609666
-0.572557 0.00598896 -0.0967543
0.233378 -0.0223873 -0.0786958
-0.99205 -0.00284483 -0.0503186
0.459965 -0.0223873 -0.128288
-0.491131 -0.0160329 -0.0972117
-0.0580853 0.0196021 -0.13215
0.483612 -0.0223873 -0.199048
-0.877082 0.00598896 -0.00751509
0.012899 -0.0223873 -0.117231
-0.238662 0.0196021 0.139245
0.188477 -0.0223873 -0.306307
0.252549 -0.0132499 -0.1056
0.424807 0.0196021 0.113642
0.19544 0.000846195 0.207084
0.0642944 -0.0223873 -0.0478981
-0.606206 -0.000759258 -0.0972117
0.335683 0.00108625 -0.328564
0.433136 0.0196021 -0.342798
0.382775 0.0211203 0.10093
-0.422177 0.00598896 0.00439391
0.405483 0.0196021 -0.103303
-0.250686 -0.0208379 0.0629607
0.16725 -0.0198245 0.00362629
0.290872 -0.0215419 0.33188
0.153174 0.0196021 0.193091
0.465822 -0.0223873 0.118923
-0.0590503 0.0196021 -0.210935
-0.65704 0.00598896 0.0432483
0.197422 0.0196021 -0.134226
0.387709 0.00301242 0.124175
0.0160986 0.000822474 0.0477259
-0.107293 -0.0223873 0.152174
-0.182591 0.00341852 -0.172505
-0.0127673 0.0196021 -0.164603
0.22477 0.0100443 -0.263114
0.221309 -0.0134378 0.302992
-0.222407 0.0196021 0.0680446
0.502627 -0.0171829 -0.237894
0.323528 0.0159139 -0.346667
0.316174 -0.00317313 0.0479138
0.431514 0.0196021 0.360475
-0.443476 0.00598896 0.0430415
0.207891 -0.0223873 0.0666356
-0.228606 0.00133865 -0.0404734
-0.157506 0.0196021 0.138561
0.0379885 0.0196021 -0.0529137
-0.985532 -0.0203644 -0.0675782
0.143002 0.0196021 0.113116
0.369547 0.0196021 0.0605515
-0.185111 0.0114448 0.0477259
0.287284 -0.0221454 -0.3217
0.118354 -0.00161702 -0.0404734
0.410743 -0.00641724 -0.319374
0.349516 -0.0198805 0.108763
-0.0700437 -0.0223873 0.17244
-0.186303 -0.0223873 -0.112691
0.482808 0.0196021 0.195912
-0.451574 -0.00572079 0.10353
0.424987 -0.022133 0.284138
-0.446508 0.00598896 -0.0780582
-0.0131231 -0.0223873 0.0678842
-0.347475 0.00598896 -0.0140773
0.010544 0.0196021 0.0873375
0.179057 -0.0223873 0.0463852
-0.0916518 0.0196021 -0.148577
-0.9272 0.00598896 0.0359204
0.233466 -0.0213664 -0.277234
0.254063 0.00890382 0.111624
-0.536031 0.00598896 0.0635376
0.423549 0.00254369 0.0770454
0.440158 -0.0208644 0.197766
-0.230127 -0.0223873 -0.120794
-0.791498 0.00598896 0.0169092
0.0371573 0.0196021 -0.250005
0.400009 -0.0217876 -0.101598
0.367927 -0.022096 0.0963032
-0.101375 -0.0223873 0.0950707
0.383963 -0.00935393 0.388167
0.296611 -0.00330217 0.111373
-0.154063 0.0196021 -0.0879756
-0.3353 0.00598896 0.0665796
0.439081 0.000749412 -0.248066
0.326506 -0.0113607 0.0899431
-0.0836103 0.0123263 -0.21086
0.409433 0.0224743 -0.131758
-0.824002 0.00598896 0.018768
0.349495 -0.0223873 -0.374308
0.308695 0.00209203 -0.100353
0.443914 0.00538359 -0.209591
0.487398 0.0188999 0.151898
0.424058 0.0196021 -0.308724
0.24526 -0.00551299 -0.366592
0.441258 -0.0223873 0.0922431
0.435135 -0.00552438 0.143472
0.408028 -0.00863186 0.116482
-0.121482 -0.0223873 0.120024
-0.717896 0.00598896 -0.0565231
0.411966 -0.0101415 0.325024
-0.303614 0.00598896 0.0744114
0.0384629 -0.00133711 -0.261382
0.312443 -0.0216928 -0.346147
0.500325 -0.0050547 0.252759
-0.280278 0.00598896 0.0891726
0.160744 -0.0223873 -0.171493
0.476605 0.0196021 -0.292622
0.147242 -0.0223873 0.203326
0.0113183 0.0196021 -0.132861
-0.68011 0.00598896 0.0217208
-0.00991509 -0.0223873 -0.0528767
0.115833 0.0196021 -0.101253
0.162217 0.0196021 0.284673
0.11401 0.0196021 0.13891
0.241892 0.0124421 -0.289275
0.284474 0.0196021 0.0934443
0.0925606 0.0196021 -0.129827
0.151963 -0.0223873 0.0946494
0.481985 -0.0223873 -0.155184
0.427703 -0.0114794 -0.273126
0.311006 -0.0223873 0.381299
0.349533 0.0166588 0.396352
-0.009657 -0.00387718 0.0477259
-0.889594 0.00598896 0.0653347
0.480683 -0.0220362 0.30607
-0.0378502 -0.0223873 0.18372
0.153266 -0.0223873 0.114258
0.0356325 0.0196021 0.17699
0.410599 0.00987829 -0.294936
0.445989 -0.0223873 0.325795
-0.11437 0.0196021 0.172298
0.119258 0.0192368 0.015263
0.470055 0.0196021 0.230289
0.457493 0.00378478 0.250386
0.372569 0.0196021 -0.0739658
-0.317269 0.00598896 -0.0238941
-0.0742423 -0.0160243 -0.214833
0.244418 0.0196021 -0.349774
-0.923265 -0.000355048 0.0847339
0.222653 0.0224173 0.30077
-0.693576 0.00598896 -0.0169239
0.436742 0.0224743 -0.160295
0.250203 0.00388536 0.308523
-0.123325 -0.0223873 -0.177897
0.23336 0.00193832 -0.277063
0.16786 0.0196021 0.16305
0.213828 0.0224743 -0.278055
0.10156 0.0196021 -0.0623149
0.352478 -0.0158972 -0.345297
0.00861593 0.0196021 -0.200103
-0.521773 0.00598896 0.0261434
-0.186037 -0.0223873 0.105828
0.453358 0.0196021 0.330235
0.26511 0.00515397 -0.0978645
0.191105 0.0196021 0.222737
-0.185773 0.0196021 0.0836143
-0.0741664 -0.0223873 0.0663794
-0.196065 0.00486742 0.17244
-0.965565 0.00598896 -0.0235848
0.225469 -0.0223873 0.0599281
-0.0722516 0.0196021 0.0769979
0.493975 -0.0223873 -0.179685
0.125017 0.0196021 -0.0366504
-0.0147163 0.0196021 -0.0535561
-0.0985907 -0.0219252 -0.204507
0.415002 0.00308927 -0.112708
-0.148405 0.00711998 0.0477259
-0.576774 0.00598896 -0.0610966
0.121817 -0.0223873 -0.0359739
-0.6939 0.00598896 0.0475181
-0.691801 -0.0221947 -0.0972117
-0.0282459 0.0196021 0.0685949
0.0928861 0.0196021 0.185318
0.342293 -0.00140068 0.355192
0.223397 0.0196021 -0.12801
-0.113608 -0.00070802 -0.0404734
-0.146723 0.0196021 0.173337
0.128122 0.0196021 -0.162909
0.310634 -0.0219063 -0.0402105
0.440013 0.00833072 -0.141155
-0.0580863 -0.0223873 0.153106
0.439659 -0.0223873 0.111065
-0.805125 0.00598896 -0.0772735
0.228483 0.0196021 -0.105811
0.438621 -0.0223873 -0.323631
0.104701 0.0196021 -0.149771
0.297421 0.0196021 0.0674117
-0.128889 0.0196021 0.0704357
0.373235 -0.0223873 0.363033
0.373516 -0.0223873 0.381518
-0.263937 -0.00631477 -0.0520417
-0.813989 0.00598896 0.043162
-0.00674024 -0.0223873 0.100903
0.157864 0.0196021 0.0761098
0.178502 0.0196021 0.122812
0.389819 0.0182433 0.319906
-0.879508 0.00598896 0.041344
-0.366201 -0.0050509 0.10353
0.306624 -0.00326991 -0.344764
-0.490134 0.00598896 -0.0452119
-0.531787 -0.0182048 0.10353
-0.836048 0.00598896 0.0860376
0.484749 0.0196021 0.242567
-0.0262666 -0.0223873 -0.120696
0.365778 0.0146804 -0.322801
-0.893459 -0.00446926 0.0910808
-0.0843978 0.0196021 -0.0899093
0.198217 0.0045116 -0.238191
-0.113753 -0.0223873 -0.0679482
-0.330029 0.00598896 -0.0571978
0.16871 0.00386164 0.3204
-0.826271 0.00598896 -0.0191603
0.32694 0.0125227 -0.0992413
0.261042 -0.0223873 -0.0615748
-0.0358794 0.0196021 0.160033
-0.029135 0.0136927 -0.0404734
0.0376611 0.0196021 -0.0902092
0.216834 -0.0223873 -0.0504771
0.238927 -0.0159228 -0.116643
-0.987925 0.00598896 0.0537037
-0.91555 0.00598896 -0.0275918
-0.238599 -0.0223873 -0.137928
0.126645 0.0196021 -0.280698
0.333491 0.0193601 0.0484063
0.18223 0.00318985 -0.323944
0.153031 0.0196021 -0.296845
-0.71633 0.00598896 0.068964
0.356739 0.0224743 -0.0907197
0.39385 0.00737902 -0.308932
0.465936 -0.012357 0.330014
0.177077 -0.0223873 0.280508
0.298373 0.017731 0.0477259
0.25351 0.0224743 -0.302681
-0.336323 -0.0128912 0.10353
-0.05477 -0.0223873 0.0673235
0.0679769 0.0196021 -0.23097
0.162783 0.0196021 -0.0448495
0.0602997 0.0196021 -0.165777
0.231318 0.00623945 -0.359062
-0.14331 -0.0223873 0.132959
0.382923 0.0196021 0.383841
-0.2486 0.00598896 0.0824054
0.402229 -0.0223873 0.333993
-0.197076 -0.0223873 -0.144712
-0.841868 0.00598896 -0.00950388
0.0633142 -0.0223873 0.136343
0.218823 0.00134055 -0.245162
-0.874708 -0.00592954 0.0950735
0.442841 0.00200189 0.223733
-0.0881629 -0.0223873 0.174674
0.10428 -0.0223873 -0.136396
0.0519499 -0.0223873 -0.119991
-0.794843 0.00598896 0.0660558
-0.173628 -0.0222744 0.0477259
0.0092972 -0.0223873 -0.19054
-0.422526 0.00598896 -0.0360024
-0.638931 0.00598896 0.0330975
0.271243 -0.0223873 0.0946257
0.440474 -0.00108092 0.291801
-0.214447 -0.0223873 -0.0476637
-0.00735225 -0.0223873 -0.0960512
0.210497 0.0196021 0.157006
0.359593 0.00478012 0.0502755
-0.00580658 -0.0223873 0.194379
-0.0811594 -0.0223873 -0.0930927
-0.386832 -0.0012166 0.10353
-0.300503 0.00453722 0.0307729
0.223884 0.0127609 0.36327
0.410165 -0.0223873 -0.357746
0.343116 -0.0116407 -0.387847
0.132359 0.0196021 0.0521941
0.252517 -0.0222735 -0.128106
-0.0431561 0.0196021 0.208235
-0.863153 0.00598896 0.067128
0.423428 0.00363581 0.157452
0.100509 -0.0223873 -0.0777783
0.457568 -0.0156059 0.250135
0.465464 -0.0223873 0.297661
0.0200885 -0.0223873 -0.0820035
0.23157 -0.0190237 0.368004
-0.805675 0.00598896 0.0849835
0.17702 -0.0223873 -0.165123
-0.0726169 -0.0223873 0.135766
-0.272953 -0.0103151 0.10353
0.290963 0.0224743 -0.0969337
0.0673743 -0.0223873 0.172282
0.264321 0.0196021 0.079556
0.283612 0.00241844 -0.0893201
-0.124074 0.0196021 -0.0614391
0.254244 0.0196021 -0.04866
0.0656085 0.0196021 -0.264996
-0.143165 -0.0223873 -0.133655
0.442407 0.0196021 -0.326622
0.0638399 0.0196021 0.20156
0.108081 -0.0223873 -0.104084
0.443243 0.0145533 -0.281705
0.190029 -0.00527863 -0.0402086
0.463585 -0.00271199 -0.325447
0.119663 -0.0223873 0.0342181
-0.329819 0.00598896 0.0287461
0.181477 0.0177082 0.00362629
-0.632203 0.00598896 0.0964892
0.44023 -0.0223873 -0.0795859
0.326533 -0.0209384 0.355031
-0.110043 0.0196021 0.0605031
0.251418 0.00148951 0.13584
-0.0920304 0.0196021 -0.120537
0.304385 -0.0223873 -0.0643255
-0.200329 0.0196021 -0.050052
0.227553 0.0196021 -0.0665307
0.331007 -0.0214556 -0.0396327
0.466968 0.0196021 -0.135171
0.327885 -0.00243492 0.337855
0.134609 0.0196021 -0.226866
-0.3755 0.00598896 0.0441421
0.279988 -0.00718297 -0.381313
0.496254 0.00147244 -0.2647
0.174916 -0.0223873 -0.0600927
-0.525068 0.00598896 -0.023359
0.449161 0.0224743 -0.173003
0.182136 -0.0223873 -0.142954
0.119933 -0.0223873 0.17076
0.190909 -0.0223873 0.3132
0.274923 -0.0209935 0.119912
0.147345 0.0196021 -0.103584
0.28422 0.0124649 0.347849
0.0897188 0.00094108 0.267559
-0.0895805 -0.0223873 -0.166927
-0.627596 0.00598896 -0.0759081
0.182262 -0.0223873 0.0115653
0.116103 -0.0223873 0.258054
0.212342 0.00563029 0.218013
0.244884 0.0196021 -0.101094
0.224288 0.00362727 0.170335
0.0226674 0.0196021 0.0635395
0.430537 0.00450116 -0.127384
-0.488433 0.00598896 -0.0733443
-0.997601 0.00598896 0.00971126
0.485283 -0.0169267 -0.291656
-0.616011 -0.020446 0.10353
0.16454 0.0196021 -0.239813
-0.816573 -0.0112308 -0.0972117
0.0656854 0.0196021 0.100095
-0.581858 -0.00732339 0.10353
0.373606 0.0168903 -0.382527
0.211279 -0.0125781 0.286046
0.0888563 -0.0223873 -0.281925
0.263405 -0.0117099 0.106579
0.085059 0.0196021 -0.114597
0.496872 0.00404951 -0.166442
0.37525 -0.0223873 -0.369476
0.482486 0.0196021 -0.218577
0.430551 0.0224173 0.304475
0.05755 0.0196021 0.235205
